ply
format ascii 1.0
element vertex 1250
property float x
property float y
property float z
property uchar red
property uchar green
property uchar blue
end_header
62.6564 12.0106 -43.6165  255 255 255
-9.27344 -5.61342 36.9511  255 255 255
11.1 -0.0679739 30.3836  255 255 255
-9.31311 -5.86006 36.9435  255 255 255
58.3718 11.7966 -3.53249  255 255 255
-5.04359 -5.05283 37.8036  255 255 255
7.8201 -1.59483 33.3899  255 255 255
57.9913 10.8881 -5.01665  255 255 255
1.8679 -3.48863 36.7932  255 255 255
3.13085 -3.20595 36.0353  255 255 255
15.8074 -0.0585593 25.2242  255 255 255
-3.95058 -5.23904 38.1985  255 255 255
-12.9926 -8.05006 35.884  255 255 255
-25.0547 -12.0789 27.6518  255 255 255
-25.0905 -12.1131 27.3352  255 255 255
-25.0748 -12.1106 27.3856  255 255 255
-25.0828 -12.1103 27.4104  255 255 255
-24.7489 -12.1192 27.5088  255 255 255
-24.7489 -12.1192 27.5087  255 255 255
56.5506 9.56503 -9.82821  255 255 255
13.7984 -0.914095 28.8636  255 255 255
-23.9032 -11.9808 27.2567  255 255 255
-15.0548 -9.18546 35.4792  255 255 255
-0.780413 -4.90815 37.7532  255 255 255
-6.61712 -6.76238 38.2346  255 255 255
-6.61662 -6.76694 38.2269  255 255 255
8.72163 -2.64959 34.1813  255 255 255
-1.06797 -5.44129 38.1605  255 255 255
3.90774 -4.3369 36.6897  255 255 255
-7.78047 -7.605 37.7291  255 255 255
2.99708 -4.84075 37.3231  255 255 255
9.22048 -3.50069 33.7836  255 255 255
-4.96321 -7.39699 38.6466  255 255 255
-8.43549 -8.52845 38.3024  255 255 255
9.16201 -3.81798 33.9581  255 255 255
9.44279 -3.79089 33.8963  255 255 255
58.9853 7.79916 -4.61792  255 255 255
59.6409 7.88003 -6.1756  255 255 255
44.4218 1.1837 -37.5957  255 255 255
-55.6559 -25.9664 -5.35021  255 255 255
-30.3753 -16.5391 27.8698  255 255 255
57.5778 6.5769 -9.2095  255 255 255
57.1687 6.25361 -10.3745  255 255 255
-10.1153 -9.96747 37.9516  255 255 255
9.92999 -4.49996 34.2871  255 255 255
1.19242 -6.89555 38.6532  255 255 255
-4.39638 -8.59004 39.5873  255 255 255
57.9892 6.01102 -8.90812  255 255 255
43.0735 -0.696342 -35.7061  255 255 255
-3.40628 -8.5774 39.1745  255 255 255
11.1976 -4.85734 33.8791  255 255 255
-8.9008 -10.5417 38.501  255 255 255
-6.56034 -9.79536 39.0501  255 255 255
10.9501 -5.12973 33.7298  255 255 255
55.3253 3.74068 -17.527  255 255 255
9.96291 -5.43722 34.6549  255 255 255
-17.3859 -13.6778 33.9488  255 255 255
-10.6164 -11.2737 37.8872  255 255 255
42.1696 -1.77074 -34.2511  255 255 255
15.3941 -4.46332 30.2161  255 255 255
56.6178 3.93506 -14.7686  255 255 255
11.0973 -5.48989 33.9996  255 255 255
13.478 -4.9758 32.1678  255 255 255
-6.05779 -10.3616 39.2795  255 255 255
-10.8938 -11.8964 37.9499  255 255 255
-8.1958 -11.0406 38.8205  255 255 255
-8.19524 -11.0418 38.8214  255 255 255
59.2263 4.78591 -7.74037  255 255 255
58.9255 4.74637 -6.98985  255 255 255
-9.42134 -11.6113 38.5177  255 255 255
58.5531 4.25841 -8.17506  255 255 255
8.61397 -6.64765 35.8574  255 255 255
-2.99739 -9.83973 39.6533  255 255 255
-13.3327 -13.2914 36.8171  255 255 255
56.5105 2.47519 -15.6691  255 255 255
55.8317 1.92071 -17.1755  255 255 255
55.8026 1.94603 -17.1045  255 255 255
-4.65115 -10.8983 39.7936  255 255 255
-4.64705 -10.9167 39.6721  255 255 255
-14.8553 -14.3666 35.8511  255 255 255
-6.27858 -11.5109 39.4314  255 255 255
-6.03799 -11.4056 39.8374  255 255 255
0.874173 -9.41582 39.2207  255 255 255
59.3421 3.34345 -6.48634  255 255 255
7.90461 -7.90078 36.6304  255 255 255
-1.05105 -10.2917 39.7338  255 255 255
-16.0347 -15.7157 34.831  255 255 255
5.61303 -8.99248 37.758  255 255 255
58.1316 1.36676 -11.3391  255 255 255
0.473913 -10.5557 39.7793  255 255 255
15.7238 -6.91858 31.3713  255 255 255
59.4251 2.01078 -7.40246  255 255 255
1.19618 -10.3872 39.9187  255 255 255
4.22202 -9.64949 38.8371  255 255 255
58.7619 1.42676 -9.70665  255 255 255
-17.675 -16.875 33.6885  255 255 255
56.8953 -0.0522743 -16.1696  255 255 255
8.01766 -8.98949 37.0687  255 255 255
8.01766 -8.98949 37.0687  255 255 255
-22.0102 -18.2124 33.9186  255 255 255
12.622 -7.94228 34.2656  255 255 255
3.68474 -10.1942 38.8535  255 255 255
0.579657 -11.2274 40.0878  255 255 255
0.293269 -11.3613 40.1768  255 255 255
-53.0633 -31.5509 1.84569  255 255 255
7.62715 -9.52904 37.3188  255 255 255
-59.0165 -33.3703 2.94627  255 255 255
1.23424 -11.3254 39.6886  255 255 255
5.23927 -10.2401 38.6041  255 255 255
-8.13851 -14.247 39.5379  255 255 255
-8.12271 -14.2827 39.2405  255 255 255
-11.2647 -15.4355 37.969  255 255 255
10.6193 -9.37288 35.872  255 255 255
-5.08913 -13.8043 39.8772  255 255 255
4.27372 -11.111 39.1958  255 255 255
12.1229 -9.43287 34.8611  255 255 255
12.1229 -9.43287 34.8611  255 255 255
22.0438 -8.21426 20.7436  255 255 255
14.9018 -8.98687 32.7482  255 255 255
60.6789 0.136972 -5.20372  255 255 255
-9.24863 -15.6425 38.7511  255 255 255
13.8518 -9.55627 33.9062  255 255 255
-7.85932 -15.893 39.2861  255 255 255
5.92912 -11.9246 38.6499  255 255 255
58.3466 -2.97735 -14.2958  255 255 255
-11.0483 -17.5833 37.8265  255 255 255
-19.8998 -20.6489 35.0708  255 255 255
1.74971 -13.6088 40.0094  255 255 255
-3.30295 -15.2067 40.089  255 255 255
-1.4367 -14.766 40.1166  255 255 255
-4.11988 -15.7729 40.4068  255 255 255
-1.85859 -15.1501 40.0989  255 255 255
-0.780743 -14.8677 40.1919  255 255 255
13.2786 -11.4819 34.6497  255 255 255
-0.978289 -15.1031 40.1287  255 255 255
58.3216 -4.85108 -14.8847  255 255 255
58.3139 -4.86967 -14.9562  255 255 255
-48.4942 -34.4917 5.61455  255 255 255
60.2452 -3.76657 -9.55936  255 255 255
5.79145 -13.4018 39.008  255 255 255
-5.60895 -16.7855 39.8282  255 255 255
12.8314 -11.7964 35.6029  255 255 255
6.20086 -13.3774 39.0199  255 255 255
-82.8392 -44.1868 17.7692  255 255 255
-15.1335 -20.4859 38.0697  255 255 255
-23.3027 -23.3632 35.7193  255 255 255
-3.73822 -17.0365 39.8895  255 255 255
59.7051 -5.49678 -12.3384  255 255 255
-0.0846325 -15.9455 40.1406  255 255 255
6.88593 -14.1211 38.5578  255 255 255
59.7818 -5.57899 -11.7028  255 255 255
15.6718 -12.4127 32.8293  255 255 255
-10.8115 -19.7701 37.4257  255 255 255
11.9866 -13.1259 35.9588  255 255 255
62.7517 -3.54691 -2.13628  255 255 255
60.0039 -5.85171 -11.4737  255 255 255
6.12452 -14.6639 38.9415  255 255 255
-20.8405 -23.4118 36.1758  255 255 255
-80.5974 -44.7543 18.0315  255 255 255
-21.2978 -23.7097 36.5367  255 255 255
-5.54735 -18.5345 39.1991  255 255 255
-22.1144 -23.9636 36.8213  255 255 255
61.7453 -4.96404 -4.70887  255 255 255
59.5562 -6.84553 -11.8946  255 255 255
-4.21134 -18.3045 39.4917  255 255 255
62.612 -4.98643 -4.07394  255 255 255
0.549703 -16.9773 39.8581  255 255 255
-5.32936 -18.898 39.244  255 255 255
9.42632 -14.8974 36.406  255 255 255
2.99238 -16.3951 39.6321  255 255 255
-0.727918 -17.6036 39.8085  255 255 255
-12.0293 -21.2843 39.0266  255 255 255
-2.42329 -18.3534 39.5966  255 255 255
15.7306 -13.9463 33.197  255 255 255
4.51538 -16.3817 39.4763  255 255 255
29.1801 -12.1479 20.3248  255 255 255
-4.26656 -19.3577 39.358  255 255 255
29.2558 -12.4444 19.9592  255 255 255
6.32804 -16.5014 38.6624  255 255 255
16.3331 -14.6001 32.3729  255 255 255
6.55978 -16.5824 38.6813  255 255 255
-18.4995 -24.705 37.8499  255 255 255
-1.56327 -19.2851 39.4471  255 255 255
62.1494 -8.04034 -7.75539  255 255 255
58.4191 -10.6041 -15.7474  255 255 255
14.9651 -15.4157 33.9592  255 255 255
-8.51215 -21.7321 39.9714  255 255 255
30.3734 -13.087 21.4313  255 255 255
16.5678 -15.4763 32.3256  255 255 255
-0.132702 -19.4335 39.3307  255 255 255
1.20063 -19.0342 39.3356  255 255 255
3.62887 -18.2966 39.1671  255 255 255
16.3816 -15.8004 32.0589  255 255 255
3.84706 -18.3455 39.3171  255 255 255
1.21085 -19.2716 39.2178  255 255 255
0.137431 -19.6479 39.2155  255 255 255
7.50246 -17.5742 38.4118  255 255 255
3.42929 -18.8394 39.0737  255 255 255
30.0678 -13.7462 22.3573  255 255 255
60.8973 -10.4556 -11.9052  255 255 255
59.3965 -11.8624 -17.0402  255 255 255
17.9279 -16.1128 31.756  255 255 255
58.9122 -12.0166 -15.0657  255 255 255
61.0246 -10.5003 -10.1505  255 255 255
-4.47357 -21.6359 39.5287  255 255 255
61.3672 -10.465 -9.60553  255 255 255
-13.4908 -24.7015 38.4664  255 255 255
12.9082 -17.1866 35.3497  255 255 255
-65.3283 -44.8974 18.5407  255 255 255
3.45623 -19.8838 38.7303  255 255 255
-4.20035 -22.4518 40.3551  255 255 255
15.5869 -17.6918 33.8739  255 255 255
-18.1768 -26.9 40.49  255 255 255
-9.9507 -24.4579 39.9063  255 255 255
-9.95167 -24.4492 39.9004  255 255 255
62.7926 -11.3109 -8.00247  255 255 255
11.2814 -18.8 35.6575  255 255 255
24.5669 -16.5573 26.5071  255 255 255
-18.3634 -27.2724 40.4986  255 255 255
17.4408 -17.6012 34.022  255 255 255
62.6685 -11.8397 -7.92269  255 255 255
-20.504 -28.8863 36.7773  255 255 255
7.69645 -20.1013 37.8271  255 255 255
-0.634399 -22.2017 40.3484  255 255 255
5.32051 -20.9048 38.3794  255 255 255
-2.63157 -23.2128 41.3885  255 255 255
5.41699 -21.2679 38.9164  255 255 255
64.0219 -11.9899 -4.398  255 255 255
63.4638 -12.7169 -7.00253  255 255 255
-3.88505 -23.8915 41.5916  255 255 255
1.94044 -22.3649 40.2192  255 255 255
11.9067 -20.0786 36.5815  255 255 255
-7.42609 -25.3585 40.8441  255 255 255
6.47486 -21.4628 39.1655  255 255 255
61.6576 -14.262 -8.29592  255 255 255
2.05047 -22.648 40.516  255 255 255
14.16 -19.7777 36.4478  255 255 255
0.0114173 -23.3387 41.3863  255 255 255
9.0293 -21.1984 38.8906  255 255 255
-14.8425 -28.1264 41.9283  255 255 255
-9.3477 -26.7634 40.3214  255 255 255
23.586 -18.9182 29.945  255 255 255
-0.313675 -24.1427 41.3276  255 255 255
-0.313675 -24.1427 41.3276  255 255 255
-3.08674 -25.2553 41.0198  255 255 255
62.8892 -15.8114 -9.98328  255 255 255
62.8892 -15.8114 -9.98335  255 255 255
62.341 -17.223 -13.5567  255 255 255
17.414 -20.6805 34.6061  255 255 255
-47.7463 -44.9861 18.6571  255 255 255
-7.75163 -27.3447 41.2232  255 255 255
64.7317 -15.4922 -5.20444  255 255 255
65.757 -14.5806 -2.30716  255 255 255
23.4236 -20.3559 31.2074  255 255 255
62.8292 -17.7861 -12.0289  255 255 255
65.8155 -14.8443 -2.92568  255 255 255
65.6159 -14.8883 -1.73398  255 255 255
65.7074 -14.87 -1.84841  255 255 255
-0.317208 -25.8253 40.6524  255 255 255
-2.47673 -26.6162 40.3774  255 255 255
-2.47673 -26.6162 40.3774  255 255 255
-16.9738 -31.9787 37.5374  255 255 255
-9.40699 -28.4528 42.5859  255 255 255
-9.40699 -28.4528 42.5859  255 255 255
61.4738 -18.8655 -11.2977  255 255 255
65.3141 -15.8877 -3.53062  255 255 255
-56.6782 -48.3449 23.3161  255 255 255
66.6913 -15.4319 -1.06835  255 255 255
66.7154 -15.3998 -1.08391  255 255 255
10.1584 -23.9345 38.6887  255 255 255
10.1584 -23.9345 38.6887  255 255 255
65.5449 -17.1065 -5.17035  255 255 255
-3.71074 -27.7892 41.3159  255 255 255
7.44534 -24.5964 39.9689  255 255 255
21.5126 -21.7399 33.4083  255 255 255
64.8975 -16.9924 -3.11068  255 255 255
66.5913 -16.0556 -0.885031  255 255 255
10.9721 -24.0922 38.4849  255 255 255
63.8302 -19.7126 -11.9127  255 255 255
-4.72037 -28.2937 42.5329  255 255 255
-6.21662 -29.0014 43.2397  255 255 255
18.457 -23.2251 35.3645  255 255 255
66.9472 -16.9382 -0.996714  255 255 255
66.8652 -16.9361 -0.8378  255 255 255
66.2061 -17.9448 -4.01156  255 255 255
66.2061 -17.9448 -4.01157  255 255 255
-13.9428 -33.5924 37.8477  255 255 255
-6.44407 -29.7424 44.1523  255 255 255
-48.1623 -48.701 23.7474  255 255 255
-6.85203 -30.0423 45.0521  255 255 255
7.87699 -26.578 40.4185  255 255 255
-71.8892 -55.1255 32.3863  255 255 255
1.74393 -28.3238 42.1828  255 255 255
4.62788 -27.598 41.7338  255 255 255
5.5228 -27.6062 41.1074  255 255 255
22.6385 -23.88 35.0895  255 255 255
65.4672 -21.7957 -8.57191  255 255 255
65.4854 -21.798 -8.643  255 255 255
65.5783 -22.1873 -8.71963  255 255 255
-44.5171 -49.207 23.4204  255 255 255
9.30016 -27.3574 40.8714  255 255 255
9.30017 -27.3574 40.8713  255 255 255
13.2135 -26.4635 39.4569  255 255 255
12.8236 -26.7284 40.1741  255 255 255
12.8236 -26.7284 40.1741  255 255 255
8.57546 -27.7669 41.4595  255 255 255
-1.61556 -30.4523 43.8922  255 255 255
13.0005 -26.9807 40.1578  255 255 255
10.6154 -27.4755 41.4413  255 255 255
-3.199 -31.4317 43.1936  255 255 255
10.0115 -27.8914 41.6361  255 255 255
17.4667 -26.2835 39.1427  255 255 255
66.7057 -23.153 -5.87965  255 255 255
-82.3239 -60.0188 38.0582  255 255 255
-35.9708 -47.8203 24.3353  255 255 255
-23.4774 -42.373 30.6299  255 255 255
22.6848 -27.1538 32.3825  255 255 255
-42.5893 -50.3973 26.0015  255 255 255
-26.7469 -44.8623 26.8994  255 255 255
1.88068 -31.0327 44.0177  255 255 255
65.5337 -24.4728 -3.55386  255 255 255
67.9238 -23.6701 -3.24314  255 255 255
-42.5851 -51.3196 27.2656  255 255 255
23.0076 -28.8974 30.9605  255 255 255
11.2636 -29.8385 40.9858  255 255 255
68.0137 -25.1794 -2.73906  255 255 255
68.0224 -25.1653 -2.78982  255 255 255
3.11316 -32.9362 41.8546  255 255 255
14.3392 -30.3561 38.9  255 255 255
-43.8532 -52.5964 28.6342  255 255 255
-47.0169 -53.6942 29.6601  255 255 255
14.4972 -30.6445 38.6588  255 255 255
69.0133 -26.3637 -2.58785  255 255 255
67.1729 -26.1261 1.46158  255 255 255
-45.8237 -54.2455 30.9993  255 255 255
7.42847 -33.8696 39.5986  255 255 255
69.377 -27.0658 -1.60441  255 255 255
69.4535 -26.9681 -1.09257  255 255 255
12.8877 -33.52 37.1711  255 255 255
10.4257 -34.3681 37.9464  255 255 255
4.64103 -36.1419 39.2532  255 255 255
2.03123 -37.6091 38.1157  255 255 255
-2.66089 -39.5861 36.8597  255 255 255
14.2132 -34.5298 35.5916  255 255 255
9.98074 -36.2949 36.7268  255 255 255
9.95575 -36.2589 36.9206  255 255 255
9.79082 -36.5082 36.662  255 255 255
-5.63742 -42.8433 34.4289  255 255 255
60.978 -31.3778 3.84485  255 255 255
57.9037 -31.8276 5.79805  255 255 255
-57.3662 -59.8088 38.2112  255 255 255
55.0986 -32.8298 6.01006  255 255 255
9.43001 -39.7928 34.4581  255 255 255
60.2123 -33.2588 9.20861  255 255 255
14.7869 -40.8977 31.3052  255 255 255
-78.8317 -68.4635 48.9074  255 255 255
6.17029 -43.3952 35.1609  255 255 255
-27.0444 -56.5883 34.208  255 255 255
33.9054 -42.2684 20.9111  255 255 255
58.1121 -38.0202 14.6527  255 255 255
57.7181 -38.0885 15.0748  255 255 255
57.718 -38.0885 15.075  255 255 255
56.0509 -39.6072 15.1452  255 255 255
-23.1324 -58.3306 36.6581  255 255 255
3.07275 -51.2424 34.3988  255 255 255
-8.12846 -55.4154 37.013  255 255 255
30.3906 -47.5791 26.3131  255 255 255
-37.2862 -64.7241 42.141  255 255 255
40.8738 -45.8129 23.2327  255 255 255
-64.2335 -71.0579 52.4617  255 255 255
-35.9803 -64.2938 43.6997  255 255 255
-35.9803 -64.2939 43.6996  255 255 255
-7.53249 -56.8597 37.1368  255 255 255
55.5436 -42.6029 21.1899  255 255 255
51.7154 -44.0322 20.9157  255 255 255
-6.2493 -56.8208 37.1065  255 255 255
38.8956 -48.214 23.2999  255 255 255
-23.0631 -62.0688 41.8093  255 255 255
-70.636 -74.1284 55.9905  255 255 255
50.6177 -45.274 22.5636  255 255 255
8.70721 -54.3858 35.3423  255 255 255
0.0338344 -58.8119 37.8561  255 255 255
-6.93518 -60.5826 39.5812  255 255 255
-28.2368 -65.7069 45.8121  255 255 255
2.65756 -59.9022 39.1392  255 255 255
0.112191 -61.1533 39.4688  255 255 255
57.1512 -48.749 25.0781  255 255 255
53.6983 -49.8887 26.4172  255 255 255
47.7132 -50.2869 30.3387  255 255 255
7.92059 -60.2723 39.5702  255 255 255
-4.28617 -63.7912 43.4825  255 255 255
20.8503 85.3145 -79.9267  255 255 255
3.95831 79.0024 -73.1194  255 255 255
-62.3188 55.3109 -47.8628  255 255 255
20.2254 84.3456 -80.1635  255 255 255
28.5515 87.1036 -83.6604  255 255 255
28.555 87.0975 -83.6819  255 255 255
58.9872 97.4342 -95.4717  255 255 255
56.0936 96.0262 -94.196  255 255 255
27.3254 85.6662 -83.6221  255 255 255
58.308 96.4064 -95.1976  255 255 255
24.3044 84.3954 -82.864  255 255 255
24.2178 84.2568 -82.4346  255 255 255
54.6827 95.1362 -94.3482  255 255 255
-87.075 45.4139 -39.4847  255 255 255
-71.6619 50.4628 -45.4014  255 255 255
-3.11361 74.134 -72.409  255 255 255
-3.11784 74.1003 -72.3504  255 255 255
19.3243 81.9955 -80.7687  255 255 255
19.3243 81.9955 -80.7687  255 255 255
-72.9597 49.5451 -45.6562  255 255 255
39.2132 88.7735 -89.1398  255 255 255
61.0781 96.3228 -97.4823  255 255 255
-3.3509 71.828 -74.0876  255 255 255
-53.1801 54.0268 -54.8278  255 255 255
4.12319 72.8951 -76.8647  255 255 255
-92.5065 40.0108 -40.0838  255 255 255
-6.75272 68.3456 -74.1697  255 255 255
-86.3888 41.1674 -43.2133  255 255 255
-86.4374 41.1889 -43.3995  255 255 255
55.1925 89.8545 -98.0272  255 255 255
18.4902 76.9146 -84.4797  255 255 255
70.8778 94.5786 -104.157  255 255 255
-21.7391 62.1129 -69.2004  255 255 255
-68.3358 45.5066 -51.3912  255 255 255
71.0065 93.556 -105.168  255 255 255
-11.2573 64.3415 -74.3029  255 255 255
48.574 85.121 -97.8483  255 255 255
32.8727 79.4979 -91.8957  255 255 255
-34.8604 55.4522 -65.5662  255 255 255
46.9149 83.9961 -97.1397  255 255 255
73.7032 93.1301 -107.5  255 255 255
-57.3946 47.2036 -57.2795  255 255 255
70.0055 90.8521 -106.395  255 255 255
-57.6944 46.5129 -57.819  255 255 255
-0.184432 66.0934 -79.9231  255 255 255
-24.3905 56.5769 -71.8749  255 255 255
-48.8444 47.8596 -62.1304  255 255 255
-48.4782 47.5754 -62.7874  255 255 255
-13.2194 58.8702 -77.0276  255 255 255
-47.3587 45.74 -64.374  255 255 255
-86.766 32.5235 -49.6955  255 255 255
-56.0768 41.8773 -61.7401  255 255 255
-86.1145 32.1038 -49.2951  255 255 255
20.4667 66.5273 -93.1802  255 255 255
-68.5886 35.3173 -59.1046  255 255 255
-68.6221 35.3451 -59.3344  255 255 255
33.3826 69.5345 -99.8759  255 255 255
-70.7522 34.0329 -59.2199  255 255 255
60.3233 77.8943 -110.269  255 255 255
-74.5985 32.4627 -58.2033  255 255 255
-55.3204 37.847 -65.623  255 255 255
59.5033 76.6311 -109.848  255 255 255
59.5034 76.6311 -109.849  255 255 255
-64.6057 33.8212 -61.7537  255 255 255
-28.1161 45.862 -77.3663  255 255 255
-28.1341 45.8604 -77.3433  255 255 255
-54.4391 37.0931 -66.4129  255 255 255
-7.88947 52.5043 -85.5238  255 255 255
9.20833 58.1132 -92.704  255 255 255
26.6509 64.3386 -102.578  255 255 255
33.6528 66.223 -102.35  255 255 255
-53.8312 36.4288 -68.1891  255 255 255
-36.5043 41.6914 -75.2618  255 255 255
-25.6406 45.2826 -79.4274  255 255 255
-91.6143 24.0358 -53.1184  255 255 255
-25.1779 44.9577 -79.5259  255 255 255
-15.1597 48.4891 -83.736  255 255 255
-93.4034 23.3923 -52.6547  255 255 255
-10.8756 49.7107 -85.6445  255 255 255
26.2121 62.9071 -102.21  255 255 255
-25.1512 44.1973 -80.2728  255 255 255
-68.5831 29.9137 -63.9343  255 255 255
-26.5298 43.3769 -80.5324  255 255 255
-26.4694 43.2892 -80.1527  255 255 255
-40.2993 38.7968 -75.9326  255 255 255
37.5751 64.7088 -106.008  255 255 255
37.5452 64.6976 -105.912  255 255 255
15.4786 56.9085 -97.1376  255 255 255
38.8194 64.5917 -106.5  255 255 255
38.7934 64.613 -106.484  255 255 255
63.1247 72.0583 -116.026  255 255 255
33.7952 61.9058 -105.18  255 255 255
41.557 64.0799 -106.532  255 255 255
43.4919 63.7172 -108.693  255 255 255
46.9153 64.9039 -110.648  255 255 255
15.7737 54.4434 -99.498  255 255 255
16.52 54.3139 -100.033  255 255 255
19.4805 54.9438 -101.075  255 255 255
21.4347 55.1115 -102.326  255 255 255
40.9074 61.7155 -109.919  255 255 255
43.3022 62.027 -111.167  255 255 255
40.8975 61.2523 -110.633  255 255 255
21.4593 54.4956 -102.733  255 255 255
44.5818 62.089 -110.597  255 255 255
41.9164 61.2267 -111.085  255 255 255
-23.4306 38.0775 -85.5631  255 255 255
-73.7139 21.3455 -66.5099  255 255 255
-30.2503 31.4183 -78.5399  255 255 255
-30.2503 31.4183 -78.5398  255 255 255
-72.1349 18.1818 -61.9141  255 255 255
-103.729 8.39359 -50.5784  255 255 255
9.05388 42.1262 -91.2451  255 255 255
-77.0568 14.8553 -58.5741  255 255 255
14.1889 42.581 -91.8437  255 255 255
14.1954 42.592 -91.9051  255 255 255
17.9133 39.4889 -87.6498  255 255 255
21.6541 39.0264 -87.316  255 255 255
21.6541 39.0264 -87.316  255 255 255
19.5856 38.3531 -86.5112  255 255 255
10.9481 35.428 -83.0573  255 255 255
10.3045 35.0118 -81.9543  255 255 255
22.6811 38.6913 -87.2998  255 255 255
11.6828 35.0236 -82.3586  255 255 255
14.435 35.4508 -83.0573  255 255 255
-56.014 13.5343 -56.4595  255 255 255
7.91836 33.1194 -80.1753  255 255 255
14.44 34.6784 -81.916  255 255 255
-38.9656 17.8529 -60.7192  255 255 255
58.6848 40.4911 -35.7208  255 255 255
-72.4745 5.8288 -46.4549  255 255 255
20.5796 33.7449 -80.4907  255 255 255
-72.2092 5.30184 -45.995  255 255 255
9.18134 29.2655 -74.4019  255 255 255
16.796 31.5103 -78.3632  255 255 255
-93.3493 -1.53619 -37.9019  255 255 255
21.5963 32.7076 -79.2587  255 255 255
10.4751 29.0125 -74.479  255 255 255
10.4092 28.3998 -74.0323  255 255 255
13.5633 29.244 -74.9913  255 255 255
12.1425 28.5915 -74.087  255 255 255
8.37952 26.3544 -71.4387  255 255 255
10.8974 25.756 -71.3138  255 255 255
10.0095 24.3168 -68.7847  255 255 255
-110.504 -11.2509 -24.6056  255 255 255
3.13005 21.2096 -64.599  255 255 255
13.0075 21.4543 -65.1055  255 255 255
35.8834 28.4737 -74.032  255 255 255
10.1454 20.5035 -63.6388  255 255 255
12.6072 20.959 -64.9819  255 255 255
11.9697 19.4935 -60.1924  255 255 255
-40.2094 3.85535 -44.5545  255 255 255
35.5509 24.1255 -68.1692  255 255 255
40.3458 25.0861 -69.0833  255 255 255
31.8349 21.4864 -64.9106  255 255 255
63.4925 28.6591 -30.5998  255 255 255
-70.5302 -8.86268 -29.2403  255 255 255
-7.20937 5.82791 24.6089  255 255 255
-28.1491 0.125736 5.36563  255 255 255
-7.50343 5.18585 24.3693  255 255 255
31.002 17.5305 -59.6047  255 255 255
-44.3942 -6.06001 -30.2656  255 255 255
-28.159 -2.31647 8.82175  255 255 255
-42.4064 -5.62747 -31.3352  255 255 255
-17.3451 -0.0317805 27.8035  255 255 255
-30.014 -4.30056 11.1616  255 255 255
4.94093 5.44039 21.508  255 255 255
-54.0346 -10.8337 -24.9544  255 255 255
27.3041 11.2557 -50.3454  255 255 255
9.91651 5.54463 22.7933  255 255 255
27.4543 10.6142 -49.7002  255 255 255
40.0222 11.6076 -51.2498  255 255 255
55.8048 16.5831 -9.88833  255 255 255
55.8647 16.3192 -6.42002  255 255 255
10.2658 3.10028 27.4221  255 255 255
-46.5983 -14.2558 -20.4602  255 255 255
-14.5599 -4.27617 33.0981  255 255 255
-14.5599 -4.27618 33.0981  255 255 255
40.5093 9.38578 -50.4284  255 255 255
-21.1296 -6.83748 27.494  255 255 255
37.3229 8.00128 -46.2759  255 255 255
-45.1229 -15.1331 -19.0229  255 255 255
56.2154 13.9639 -8.06521  255 255 255
35.6554 6.95945 -45.9135  255 255 255
-23.9731 -8.39087 22.5918  255 255 255
38.6618 6.96431 -45.6905  255 255 255
-44.559 -16.2303 -17.1621  255 255 255
-32.3846 -11.5548 20.9732  255 255 255
48.0384 8.86111 -48.4238  255 255 255
7.97122 -0.0154646 32.3693  255 255 255
57.1745 12.665 -5.84232  255 255 255
48.8049 8.25635 -47.5367  255 255 255
48.3744 7.79838 -47.0983  255 255 255
-4.69303 -4.28187 37.2933  255 255 255
-4.69303 -4.28187 37.2933  255 255 255
-26.0525 -10.9203 25.7948  255 255 255
-3.73453 -4.00163 37.5319  255 255 255
58.0046 12.1352 -3.86954  255 255 255
55.1987 10.7298 -12.622  255 255 255
-28.2597 -12.2686 22.5776  255 255 255
51.8018 6.63081 -45.8825  255 255 255
7.82532 -2.51831 34.4327  255 255 255
-8.41773 -7.30231 38.0874  255 255 255
-21.2171 -11.6488 28.9289  255 255 255
-17.5984 -10.7991 33.0288  255 255 255
1.56779 -4.92647 37.7558  255 255 255
7.19302 -3.60212 35.593  255 255 255
-4.31155 -7.00064 38.6967  255 255 255
-11.0733 -9.55309 37.4281  255 255 255
56.6541 5.77298 -12.0756  255 255 255
8.1755 -5.17109 35.6259  255 255 255
-20.3849 -14.0636 30.5326  255 255 255
-61.4912 -29.1782 -1.87975  255 255 255
-54.0738 -27.579 -3.504  255 255 255
-29.5472 -17.6051 28.997  255 255 255
-11.5759 -11.9936 37.6339  255 255 255
56.4035 3.56943 -13.5798  255 255 255
-6.69912 -10.7656 38.9956  255 255 255
-6.69912 -10.7656 38.9956  255 255 255
18.2946 -4.50124 26.3191  255 255 255
-1.19538 -10.0281 39.6876  255 255 255
16.406 -6.14506 30.0013  255 255 255
-84.5271 -38.4294 9.2691  255 255 255
-4.32471 -12.5817 40.1731  255 255 255
1.92443 -11.0418 39.6696  255 255 255
-28.5361 -21.4046 34.1275  255 255 255
59.9024 -0.599573 -8.46932  255 255 255
3.25457 -12.1008 39.8045  255 255 255
58.4495 -3.77476 -13.542  255 255 255
-15.2778 -19.5798 37.0252  255 255 255
1.40484 -14.202 40.1205  255 255 255
-20.2822 -21.7695 35.2541  255 255 255
12.9543 -11.7735 34.9781  255 255 255
62.6302 -2.20812 -2.01364  255 255 255
-12.18 -19.5215 36.9996  255 255 255
-11.6744 -19.3951 37.5627  255 255 255
21.1283 -11.5242 25.876  255 255 255
2.24118 -15.5058 39.9473  255 255 255
3.39631 -15.3372 39.4281  255 255 255
-13.2696 -20.7054 38.3584  255 255 255
-0.117139 -16.479 39.8708  255 255 255
0.550572 -16.3903 39.8772  255 255 255
15.7512 -12.9305 33.0088  255 255 255
18.3285 -13.1577 29.9226  255 255 255
-8.32885 -20.1536 38.3531  255 255 255
-21.113 -24.2957 37.2637  255 255 255
-19.9253 -24.4714 37.502  255 255 255
-11.5939 -22.2668 39.8072  255 255 255
-43.1869 -37.3375 11.6627  255 255 255
14.8946 -16.0365 33.9074  255 255 255
18.5998 -15.5315 30.8902  255 255 255
-11.5065 -23.2284 39.7995  255 255 255
20.8933 -15.0674 30.3872  255 255 255
61.9722 -9.245 -7.53695  255 255 255
0.749941 -19.8325 39.1837  255 255 255
61.783 -10.1486 -9.78056  255 255 255
-11.367 -23.9255 39.5792  255 255 255
8.25425 -18.3369 37.908  255 255 255
4.76023 -19.6915 38.726  255 255 255
6.75865 -19.3821 38.1804  255 255 255
6.7565 -19.3807 38.186  255 255 255
7.19092 -19.4501 37.8843  255 255 255
60.8116 -13.2507 -11.5198  255 255 255
-90.0044 -53.3579 29.3926  255 255 255
-4.22512 -23.7425 41.6484  255 255 255
-75.0459 -50.5527 26.0886  255 255 255
2.26394 -23.2035 41.1869  255 255 255
11.4696 -20.9827 38.0638  255 255 255
6.36571 -22.4933 40.3696  255 255 255
10.0053 -21.8455 39.1952  255 255 255
7.51819 -22.7524 40.3884  255 255 255
19.6802 -20.7487 32.7596  255 255 255
-64.5161 -49.7908 24.6914  255 255 255
-7.31661 -27.6455 41.4484  255 255 255
-7.32878 -27.5802 41.7722  255 255 255
-2.25728 -26.7594 40.4003  255 255 255
-11.0229 -29.1355 43.0174  255 255 255
-15.6608 -32.5584 37.5775  255 255 255
-86.8331 -57.0609 34.1499  255 255 255
-86.8788 -58.0205 34.7518  255 255 255
-50.1188 -48.8045 23.123  255 255 255
17.3047 -24.0879 36.5576  255 255 255
-2.96195 -28.9977 42.8572  255 255 255
64.9185 -21.0314 -9.70914  255 255 255
1.14352 -28.0906 42.1127  255 255 255
65.1513 -19.7253 -4.10117  255 255 255
-72.3545 -55.0422 31.8539  255 255 255
-55.1793 -50.8584 25.888  255 255 255
-45.6503 -48.5468 22.8923  255 255 255
-45.6503 -48.5468 22.8923  255 255 255
-84.8175 -58.8289 36.3389  255 255 255
-44.2124 -48.7441 23.5705  255 255 255
-17.4927 -37.6589 32.9926  255 255 255
66.5651 -21.5451 -5.98899  255 255 255
-17.57 -38.0372 32.6472  255 255 255
65.7645 -22.6976 -8.94059  255 255 255
22.3917 -25.3597 34.3233  255 255 255
21.5345 -25.3794 35.5543  255 255 255
-2.47219 -31.104 43.3617  255 255 255
-17.1115 -39.1129 31.6406  255 255 255
-1.65761 -31.0207 43.8058  255 255 255
-43.225 -50.1352 23.9085  255 255 255
21.5097 -26.9655 34.2727  255 255 255
17.7223 -26.8132 39.9635  255 255 255
12.4859 -28.1954 41.5412  255 255 255
5.25009 -29.7899 44.1056  255 255 255
-80.3331 -60.3382 38.7333  255 255 255
22.1445 -28.5167 32.3113  255 255 255
13.5252 -29.103 40.2929  255 255 255
13.5252 -29.103 40.2929  255 255 255
-1.66376 -33.7943 41.4254  255 255 255
23.2568 -29.5273 29.9551  255 255 255
50.0113 -30.2874 0.585897  255 255 255
-59.6362 -57.143 32.7485  255 255 255
-45.643 -53.3437 29.5375  255 255 255
59.6077 -29.0917 0.235087  255 255 255
10.1987 -34.1056 38.1077  255 255 255
-42.8848 -54.5045 31.8364  255 255 255
25.5045 -34.7186 23.8025  255 255 255
-79.492 -64.8328 44.0899  255 255 255
-0.313432 -39.5043 37.4128  255 255 255
57.9263 -31.5008 4.5353  255 255 255
-33.5067 -54.8685 29.5903  255 255 255
-81.7077 -66.8628 46.5762  255 255 255
9.77006 -38.9772 35.2779  255 255 255
39.57 -37.203 13.2943  255 255 255
2.72891 -42.6918 34.1358  255 255 255
8.60095 -41.4838 32.6475  255 255 255
8.41438 -41.6346 33.5689  255 255 255
-52.3457 -61.353 40.2016  255 255 255
38.0591 -39.9551 15.3954  255 255 255
-78.978 -68.7294 49.1293  255 255 255
-74.4066 -68.3343 48.7899  255 255 255
-32.3058 -57.6695 36.0336  255 255 255
-32.2688 -58.9223 37.0063  255 255 255
-74.7281 -69.7633 50.4805  255 255 255
-47.861 -63.1 42.2588  255 255 255
-76.4651 -70.916 52.1208  255 255 255
-30.8374 -59.5543 37.9032  255 255 255
-76.2491 -71.1244 52.4583  255 255 255
65.1134 -39.7053 13.1594  255 255 255
55.4882 -42.7275 16.8093  255 255 255
-40.3023 -65.1436 44.6757  255 255 255
36.4024 -48.4847 24.273  255 255 255
5.08915 -59.796 38.1829  255 255 255
58.3069 -47.785 30.3842  255 255 255
-2.76547 -63.6788 43.1537  255 255 255
22.0342 85.5668 -80.4621  255 255 255
0.670815 77.5334 -71.5708  255 255 255
25.5412 86.4988 -81.9878  255 255 255
27.762 87.2555 -82.8721  255 255 255
25.1513 85.7189 -82.1667  255 255 255
25.1183 85.7111 -82.0885  255 255 255
27.1691 86.3518 -83.1355  255 255 255
22.2979 84.3837 -81.2135  255 255 255
22.4188 84.4154 -81.565  255 255 255
65.5738 99.2093 -98.1659  255 255 255
20.3692 83.3578 -81.0712  255 255 255
18.8737 82.527 -80.7821  255 255 255
21.0554 82.9964 -81.3428  255 255 255
55.273 94.9362 -94.3286  255 255 255
22.6434 83.454 -82.0014  255 255 255
26.0526 84.6918 -83.6382  255 255 255
24.8643 84.1832 -83.2255  255 255 255
35.5862 87.84 -87.9258  255 255 255
26.7685 84.2307 -84.3946  255 255 255
26.6986 84.1792 -84.2409  255 255 255
30.1444 84.3722 -86.1964  255 255 255
36.2765 85.6727 -89.7064  255 255 255
36.2519 85.5944 -89.5939  255 255 255
34.4323 83.7568 -88.9445  255 255 255
-77.7236 44.126 -44.178  255 255 255
68.0022 95.0977 -102.154  255 255 255
-72.3704 45.4836 -47.8903  255 255 255
-68.7733 46.4555 -50.5751  255 255 255
-35.7519 57.4343 -63.3129  255 255 255
-19.9505 62.7664 -69.4011  255 255 255
-75.8582 43.5811 -48.038  255 255 255
34.3146 80.4291 -90.6376  255 255 255
-51.5961 50.0217 -59.2749  255 255 255
-41.1589 53.4407 -63.4778  255 255 255
69.0253 91.0379 -105.222  255 255 255
68.2509 90.3466 -105.473  255 255 255
-67.2594 43.1377 -53.8444  255 255 255
-52.003 48.1988 -59.9682  255 255 255
70.9262 90.2195 -107.662  255 255 255
57.2395 85.2463 -102.96  255 255 255
-76.2325 38.536 -49.6684  255 255 255
-68.1208 40.673 -51.4405  255 255 255
9.29813 67.7092 -85.6666  255 255 255
-13.7674 59.3496 -76.8374  255 255 255
-55.3299 44.3595 -58.4808  255 255 255
-80.3104 35.3818 -47.7164  255 255 255
-47.9602 44.0717 -65.0308  255 255 255
-57.9263 39.213 -63.0338  255 255 255
-65.0978 35.8388 -60.3  255 255 255
61.0286 77.0036 -110.851  255 255 255
8.75663 59.0965 -91.4454  255 255 255
-55.0473 37.296 -66.4353  255 255 255
80.9051 83.1379 -122.429  255 255 255
-25.194 46.3802 -78.8739  255 255 255
-27.5326 45.2848 -77.2535  255 255 255
-27.5403 45.3818 -78.3747  255 255 255
-7.66189 51.784 -85.6749  255 255 255
-6.82573 51.7173 -86.8889  255 255 255
62.8771 75.2501 -113.499  255 255 255
-14.499 48.8365 -84.047  255 255 255
-26.0693 43.8377 -80.0665  255 255 255
12.1889 56.4438 -95.8008  255 255 255
-6.43281 49.9824 -88.2077  255 255 255
16.3381 57.4756 -96.7248  255 255 255
-27.6879 42.3514 -80.1054  255 255 255
68.688 74.6621 -117.269  255 255 255
33.7555 62.6083 -105.287  255 255 255
-160.145 4.34005 -46.0027  255 255 255
62.4535 70.9326 -115.535  255 255 255
66.8506 72.4329 -117.515  255 255 255
42.3737 64.0511 -108.67  255 255 255
-26.5137 40.7096 -81.869  255 255 255
41.7672 63.1965 -109.394  255 255 255
14.6817 53.7679 -99.054  255 255 255
39.3862 61.8978 -108.55  255 255 255
42.5007 62.739 -109.784  255 255 255
48.0762 64.3302 -112.36  255 255 255
14.7108 52.8319 -100.009  255 255 255
20.123 54.4094 -102.154  255 255 255
14.3708 51.7393 -100.647  255 255 255
14.3224 51.681 -100.353  255 255 255
21.3883 53.7603 -103.589  255 255 255
14.4444 44.7501 -94.6861  255 255 255
-66.8795 17.074 -61.2739  255 255 255
-77.5964 13.3657 -56.3201  255 255 255
-77.678 12.7003 -55.425  255 255 255
58.0349 45.4975 -34.6359  255 255 255
52.4075 51.8095 -103.535  255 255 255
22.1423 40.067 -89.0237  255 255 255
14.619 37.1092 -84.941  255 255 255
29.1183 41.7044 -90.7443  255 255 255
14.6265 36.1845 -83.8101  255 255 255
-94.0835 1.62938 -42.468  255 255 255
8.44266 29.1025 -74.8846  255 255 255
-99.5001 -4.1085 -34.3731  255 255 255
-99.5908 -4.13165 -34.3714  255 255 255
-79.1328 1.10629 -41.0999  255 255 255
8.38928 27.0492 -72.1093  255 255 255
8.38308 27.0449 -72.0489  255 255 255
9.41232 27.0424 -72.5726  255 255 255
6.82337 25.2688 -69.8193  255 255 255
8.32374 25.0651 -69.7058  255 255 255
12.1486 25.8818 -70.523  255 255 255
-1.69869 20.8557 -65.7094  255 255 255
2.47343 20.9888 -64.4471  255 255 255
-94.5791 -7.21154 -30.5239  255 255 255
60.538 34.7558 -34.2405  255 255 255
-1.44795 19.1333 -62.9405  255 255 255
-113.107 -14.5865 -20.0874  255 255 255
-71.3347 -2.8663 -38.0425  255 255 255
3.69021 18.5598 -61.503  255 255 255
3.65496 18.5544 -61.561  255 255 255
4.64108 18.3188 -61.3081  255 255 255
-19.7192 10.5157 -51.165  255 255 255
11.8757 19.1937 -62.2239  255 255 255
-29.7044 6.44152 -46.3548  255 255 255
-95.9808 -12.4295 -23.2051  255 255 255
31.9547 22.2013 -66.4691  255 255 255
14.5841 16.7125 -60.3921  255 255 255
-49.5582 -3.7566 -33.6459  255 255 255
-7.1553 5.39285 24.0869  255 255 255
-7.14654 5.40407 24.0412  255 255 255
60.37 24.4587 -41.2372  255 255 255
-43.647 -5.94676 -30.8491  255 255 255
-43.647 -5.94676 -30.8491  255 255 255
-11.3339 1.86192 29.687  255 255 255
-49.649 -8.80496 -27.0672  255 255 255
-29.215 -3.68018 10.3411  255 255 255
-29.2245 -3.6721 10.2816  255 255 255
-11.2339 1.05505 30.833  255 255 255
-10.4389 0.57629 31.82  255 255 255
44.0053 14.9856 -56.6946  255 255 255
-20.9078 -4.71356 26.3559  255 255 255
-20.9078 -4.71357 26.3559  255 255 255
-15.7935 -3.76478 31.7956  255 255 255
-64.0958 -19.1572 -14.2927  255 255 255
42.7087 10.2425 -50.2761  255 255 255
47.5598 10.6529 -48.8168  255 255 255
-14.3402 -5.34815 34.1223  255 255 255
57.6881 12.906 -3.98883  255 255 255
-9.94135 -5.62852 36.4316  255 255 255
-86.6621 -29.045 -1.85228  255 255 255
-22.5127 -10.3276 26.4043  255 255 255
36.8812 3.70913 -40.0901  255 255 255
-1.23167 -4.01935 37.3358  255 255 255
-12.6104 -8.00197 36.1989  255 255 255
10.6467 -1.61351 31.5773  255 255 255
10.6711 -1.63352 31.4109  255 255 255
-31.4932 -14.4236 24.7388  255 255 255
-25.2783 -12.3966 27.6115  255 255 255
-29.0039 -14.9134 25.9064  255 255 255
-18.2655 -11.8134 32.7668  255 255 255
-57.9739 -25.9741 -5.99551  255 255 255
58.9445 5.3171 -6.12623  255 255 255
14.7436 -5.53092 31.6198  255 255 255
-53.202 -29.3521 -0.778919  255 255 255
5.92224 -8.08129 38.3917  255 255 255
-53.5058 -29.997 0.0396753  255 255 255
59.5905 2.46832 -6.76902  255 255 255
14.5718 -6.98168 32.4235  255 255 255
-6.00602 -12.8375 39.6626  255 255 255
-11.2295 -14.7387 37.9754  255 255 255
60.6822 1.33122 -4.75327  255 255 255
-26.704 -20.8959 32.8379  255 255 255
3.9511 -11.3716 39.4192  255 255 255
3.93347 -11.3696 39.5907  255 255 255
-9.94683 -15.7844 38.6042  255 255 255
13.4442 -9.41671 34.1896  255 255 255
-9.38645 -17.0194 38.576  255 255 255
-19.5238 -21.3217 35.1924  255 255 255
-8.03836 -17.4051 38.9777  255 255 255
5.5136 -13.918 39.052  255 255 255
5.52596 -13.9317 39.0694  255 255 255
-4.59258 -17.5926 39.7222  255 255 255
4.07935 -15.3979 39.4614  255 255 255
2.24201 -16.9101 39.7354  255 255 255
2.24201 -16.9101 39.7354  255 255 255
22.0731 -14.1234 28.833  255 255 255
-0.608143 -19.7409 39.3066  255 255 255
-79.2999 -47.693 22.4106  255 255 255
-9.77082 -22.4705 41.2891  255 255 255
61.7929 -10.1787 -8.40543  255 255 255
61.7831 -10.2029 -8.35985  255 255 255
-17.7164 -26.0037 39.3832  255 255 255
17.2192 -16.7498 32.6904  255 255 255
29.7473 -14.6911 23.7552  255 255 255
-23.205 -30.1751 32.4303  255 255 255
-5.12946 -23.2203 41.3848  255 255 255
-65.9394 -46.8377 21.2368  255 255 255
-2.2827 -22.9045 41.0831  255 255 255
63.0522 -14.1625 -9.60451  255 255 255
-24.5992 -33.7131 28.5072  255 255 255
-89.6824 -56.0257 33.0992  255 255 255
24.144 -20.3745 30.8582  255 255 255
-9.24123 -28.3288 42.3574  255 255 255
-49.9037 -46.3727 20.2303  255 255 255
-46.5995 -47.3353 21.9496  255 255 255
-86.0743 -58.0474 35.223  255 255 255
16.9432 -24.2204 36.5787  255 255 255
-86.1641 -58.9342 36.4961  255 255 255
-61.8536 -52.5954 28.7094  255 255 255
-17.5099 -36.9749 33.1422  255 255 255
-28.1384 -42.6291 26.8418  255 255 255
66.2717 -21.3616 -6.16218  255 255 255
-84.2828 -59.2464 37.0443  255 255 255
23.8176 -24.9123 32.7823  255 255 255
65.1092 -22.3468 -5.19687  255 255 255
-82.8969 -59.5077 37.2896  255 255 255
14.848 -26.6669 40.035  255 255 255
-43.5478 -49.8549 25.4873  255 255 255
-60.6767 -54.351 30.4806  255 255 255
66.6891 -23.4409 -6.87096  255 255 255
12.7163 -27.8351 41.2857  255 255 255
11.0383 -28.2928 41.7667  255 255 255
7.74845 -29.2273 43.1448  255 255 255
67.5371 -25.1879 -6.12399  255 255 255
68.1988 -26.0885 -4.9537  255 255 255
-83.9126 -65.2504 45.1103  255 255 255
-83.3982 -65.4153 45.181  255 255 255
-0.649943 -39.0657 37.1315  255 255 255
27.5296 -34.5424 23.0288  255 255 255
11.0858 -36.5719 35.8314  255 255 255
-84.6022 -66.5752 46.5299  255 255 255
-38.363 -55.0307 32.3349  255 255 255
-78.1912 -65.6348 45.3113  255 255 255
-33.7417 -54.3274 31.3601  255 255 255
7.45258 -39.1178 35.8891  255 255 255
61.7439 -32.8971 3.88891  255 255 255
8.04794 -41.7634 33.4952  255 255 255
8.55625 -42.0568 33.4401  255 255 255
-10.1271 -47.1734 37.082  255 255 255
-31.5755 -56.107 34.1522  255 255 255
-29.1177 -56.5384 34.3614  255 255 255
-30.9207 -57.0897 34.9324  255 255 255
38.7116 -40.8032 15.7447  255 255 255
-75.4032 -68.5139 49.1251  255 255 255
-25.3868 -57.3752 35.3074  255 255 255
-41.3519 -64.1688 43.331  255 255 255
66.5533 -41.0107 14.1887  255 255 255
67.1659 -42.4633 17.0924  255 255 255
-39.0987 -67.4113 48.0639  255 255 255
50.9237 -47.6954 23.8979  255 255 255
57.5778 -46.6341 22.4456  255 255 255
67.0601 -44.9775 20.7767  255 255 255
61.9343 -46.4521 22.7306  255 255 255
-13.7185 -63.8547 44.104  255 255 255
37.6747 91.3319 -85.8242  255 255 255
30.259 87.9213 -83.7397  255 255 255
21.6653 84.7754 -80.6093  255 255 255
21.6796 84.7893 -80.6704  255 255 255
20.9749 84.1186 -80.6842  255 255 255
64.5065 99.3334 -97.4728  255 255 255
24.2327 85.0965 -82.039  255 255 255
-122.212 53.521 -87.3004  255 255 255
28.0982 86.2331 -84.0848  255 255 255
-3.87655 74.0108 -71.9237  255 255 255
-186.794 40.8213 -93.2647  255 255 255
1.35575 73.398 -75.5898  255 255 255
27.555 82.7096 -86.1336  255 255 255
37.1444 85.3601 -90.081  255 255 255
37.1493 85.3663 -90.0948  255 255 255
-20.6428 63.0371 -68.6193  255 255 255
55.6224 88.2711 -99.5856  255 255 255
29.7729 78.8223 -90.2962  255 255 255
68.9772 91.7693 -104.591  255 255 255
-53.7657 49.359 -59.2012  255 255 255
50.1993 84.2406 -98.8403  255 255 255
36.0318 79.3402 -94.7248  255 255 255
54.8078 85.5836 -101.116  255 255 255
-48.1691 48.1945 -62.233  255 255 255
-74.3222 39.2598 -51.527  255 255 255
-50.495 46.1562 -61.3926  255 255 255
47.2567 79.8805 -101.302  255 255 255
-9.6165 56.7052 -80.9868  255 255 255
-5.33015 57.7243 -82.8541  255 255 255
46.2176 73.92 -103.841  255 255 255
-132.348 2.27659 18.7188  255 255 255
-6.00021 52.8244 -86.7457  255 255 255
14.7514 59.2273 -94.9557  255 255 255
42.2691 68.5277 -104.833  255 255 255
31.4147 64.3747 -101.128  255 255 255
14.7024 58.0176 -95.8364  255 255 255
-39.8519 38.5933 -75.3515  255 255 255
60.153 71.7041 -113.844  255 255 255
-157.758 6.09376 -48.466  255 255 255
42.3102 65.5538 -107.362  255 255 255
16.1452 56.5626 -97.8035  255 255 255
53.3243 70.1923 -117.195  255 255 255
45.21 65.9896 -109.246  255 255 255
45.2891 66.0456 -109.538  255 255 255
-27.2242 41.0716 -81.2227  255 255 255
9.47581 53.1049 -96.4725  255 255 255
-36.2869 37.1842 -79.4663  255 255 255
31.416 59.2397 -106.25  255 255 255
-153.076 2.98017 -44.0163  255 255 255
44.012 62.8805 -110.726  255 255 255
63.0386 68.7755 -118.283  255 255 255
63.0816 68.8211 -118.299  255 255 255
69.6016 70.0345 -121.544  255 255 255
-150.726 1.9727 -43.2142  255 255 255
43.379 61.099 -110.916  255 255 255
-105.404 13.4115 -57.1568  255 255 255
11.0321 46.6861 -95.9477  255 255 255
-110.326 8.37409 -50.6977  255 255 255
-147.128 -2.61153 -36.9706  255 255 255
-31.0652 26.6238 -72.205  255 255 255
-72.5144 13.7329 -57.3812  255 255 255
22.41 40.8908 -89.4773  255 255 255
22.4196 40.8497 -89.4892  255 255 255
25.1703 41.9717 -90.8554  255 255 255
12.3813 37.0833 -84.9828  255 255 255
18.248 35.3997 -83.2163  255 255 255
-38.9618 16.9106 -59.7341  255 255 255
-73.48 4.85309 -46.0977  255 255 255
-78.9226 2.65016 -42.39  255 255 255
-88.5326 -0.552723 -39.4539  255 255 255
-70.625 4.09563 -44.8468  255 255 255
-105.782 -6.36063 -32.1839  255 255 255
7.27733 26.0128 -69.9914  255 255 255
-69.7607 0.303744 -38.9785  255 255 255
-70.6897 -0.121645 -39.016  255 255 255
5.05831 21.8744 -65.7166  255 255 255
8.09633 21.9239 -65.7627  255 255 255
7.30872 21.15 -64.7113  255 255 255
13.7284 23.1338 -66.9317  255 255 255
-25.1764 10.9343 -52.0725  255 255 255
10.6735 21.208 -64.8783  255 255 255
10.6876 21.2159 -64.7303  255 255 255
13.9178 22.4004 -68.7322  255 255 255
5.15871 19.1415 -61.6963  255 255 255
35.3646 25.216 -68.8402  255 255 255
29.3912 22.7711 -66.1936  255 255 255
59.4286 29.6308 -40.3651  255 255 255
28.5161 20.521 -63.9897  255 255 255
-38.4662 0.277944 -38.6749  255 255 255
27.5856 19.6346 -65.0999  255 255 255
-90.6856 -15.5333 -19.8207  255 255 255
-46.0692 -5.35587 -31.2019  255 255 255
-13.1635 -0.84889 31.6062  255 255 255
35.7034 11.1269 -50.5535  255 255 255
10.7452 4.13444 25.2405  255 255 255
35.1533 7.46844 -44.2203  255 255 255
56.5433 14.5106 -6.74563  255 255 255
-13.4221 -7.99258 35.7279  255 255 255
15.6221 -2.03543 27.7957  255 255 255
15.6304 -2.02417 27.7508  255 255 255
9.73366 -3.48252 34.148  255 255 255
-26.5133 -15.0183 26.5993  255 255 255
8.23135 -5.71781 36.0206  255 255 255
1.91499 -7.59049 38.8224  255 255 255
14.8304 -4.87864 31.3026  255 255 255
15.4729 -4.92785 30.6486  255 255 255
-53.823 -29.0297 -1.53936  255 255 255
-51.7248 -28.8431 -1.47085  255 255 255
-12.4791 -15.4239 37.1864  255 255 255
59.6925 0.566952 -7.88066  255 255 255
2.70914 -11.2476 39.6267  255 255 255
-4.08355 -13.4796 39.9385  255 255 255
-6.78909 -15.5455 39.5445  255 255 255
60.6839 -1.84667 -7.42556  255 255 255
-100.034 -47.2114 22.0889  255 255 255
-6.08014 -17.0285 39.6254  255 255 255
-0.850877 -15.3186 40.2467  255 255 255
-9.28747 -18.3302 38.4756  255 255 255
-6.2319 -17.8205 39.3128  255 255 255
16.3146 -12.1246 32.2152  255 255 255
7.12333 -14.4073 38.6438  255 255 255
17.7441 -13.2025 30.3279  255 255 255
17.7441 -13.2025 30.3279  255 255 255
-7.31312 -20.5155 38.4989  255 255 255
-3.62244 -19.2851 39.3402  255 255 255
19.7162 -14.5746 29.5645  255 255 255
-46.9692 -39.1599 11.4699  255 255 255
-12.469 -23.6422 39.251  255 255 255
-27.2705 -30.5408 27.4711  255 255 255
23.6788 -15.6567 26.1931  255 255 255
-2.52886 -22.0437 39.9006  255 255 255
14.8677 -17.9944 34.2477  255 255 255
-13.1199 -27.4088 40.9284  255 255 255
-71.874 -50.3781 27.1567  255 255 255
16.9492 -20.3385 34.9443  255 255 255
-91.111 -56.2748 33.2211  255 255 255
64.173 -14.993 -1.76993  255 255 255
-70.4662 -51.7055 27.7258  255 255 255
63.8604 -18.7966 -10.4138  255 255 255
17.5704 -23.6494 36.4071  255 255 255
-46.1768 -47.5674 22.5673  255 255 255
65.1494 -21.8647 -9.85781  255 255 255
66.4593 -22.1075 -6.28267  255 255 255
-59.5698 -53.9541 28.3674  255 255 255
13.8384 -26.7005 40.263  255 255 255
67.6364 -21.4367 -2.69737  255 255 255
67.4586 -22.8286 -4.19234  255 255 255
-42.2012 -50.0728 25.6912  255 255 255
12.1467 -28.0685 41.2255  255 255 255
-59.0742 -54.5271 30.9688  255 255 255
-43.1401 -51.0083 26.7099  255 255 255
-60.5809 -55.9878 32.4732  255 255 255
12.0142 -30.7659 39.8265  255 255 255
12.0142 -30.7659 39.8264  255 255 255
12.8745 -32.4763 37.6027  255 255 255
-58.4541 -57.7024 33.4071  255 255 255
-58.4542 -57.7025 33.4069  255 255 255
-48.9837 -55.0651 31.6485  255 255 255
59.769 -29.4379 -0.821023  255 255 255
59.4425 -30.4553 1.26722  255 255 255
-2.67691 -39.2364 37.1002  255 255 255
-2.40983 -40.077 36.1964  255 255 255
14.6625 -37.0893 33.61  255 255 255
-80.4121 -67.0904 47.0688  255 255 255
49.8593 -39.5433 13.2795  255 255 255
-34.3952 -59.2041 37.2973  255 255 255
59.0511 -38.4895 11.4311  255 255 255
3.73477 -47.6192 37.365  255 255 255
61.8496 -38.6292 12.3337  255 255 255
-72.346 -72.5364 53.9108  255 255 255
65.1241 -40.9602 13.7059  255 255 255
-64.0805 -72.5987 54.6395  255 255 255
5.42344 -59.6649 37.8757  255 255 255
58.0212 97.123 -95.0081  255 255 255
41.2508 91.1846 -88.9464  255 255 255
41.1923 91.1204 -88.7703  255 255 255
28.7588 85.424 -84.7376  255 255 255
37.7631 88.5845 -88.2598  255 255 255
37.8336 88.648 -88.4974  255 255 255
40.5398 89.4204 -89.1639  255 255 255
-71.4434 49.5286 -45.3717  255 255 255
20.1497 81.7288 -81.7284  255 255 255
20.1862 81.7334 -81.8634  255 255 255
21.8004 82.05 -82.6803  255 255 255
24.4344 82.8851 -83.8155  255 255 255
27.9842 84.1218 -85.3242  255 255 255
36.4809 86.7606 -89.0004  255 255 255
34.879 84.9984 -88.8371  255 255 255
69.2935 96.4296 -102.06  255 255 255
69.105 96.2706 -101.722  255 255 255
53.6175 88.5258 -98.084  255 255 255
53.6791 87.0571 -99.0097  255 255 255
71.0538 91.6919 -106.861  255 255 255
-136.778 10.1752 17.4667  255 255 255
-75.149 39.746 -50.4817  255 255 255
-84.3253 35.2495 -47.8616  255 255 255
-26.2731 53.3334 -71.3147  255 255 255
51.2428 78.6016 -110.169  255 255 255
-80.3075 28.7088 -60.1534  255 255 255
-25.9008 44.8793 -79.4957  255 255 255
37.9254 66.1253 -104.847  255 255 255
37.9254 66.1253 -104.847  255 255 255
41.064 66.0438 -106.873  255 255 255
14.7375 55.9423 -97.5378  255 255 255
-157.418 5.06212 -48.4179  255 255 255
19.1218 56.95 -100.473  255 255 255
19.0692 56.9267 -100.127  255 255 255
38.7829 62.8123 -107.653  255 255 255
40.6262 63.346 -108.916  255 255 255
40.5514 63.2896 -108.648  255 255 255
-154.699 3.89119 -45.4179  255 255 255
14.5654 53.9957 -98.7879  255 255 255
-158.401 1.0878 -42.1002  255 255 255
13.2834 52.2915 -99.1521  255 255 255
13.2556 52.2888 -99.0844  255 255 255
36.557 59.2044 -108.683  255 255 255
-17.341 29.4513 -75.5867  255 255 255
-104.323 3.49656 -44.4985  255 255 255
26.0568 40.1461 -89.2569  255 255 255
23.8654 39.1669 -87.1427  255 255 255
23.8111 39.1327 -87.0648  255 255 255
-101.141 -3.2561 -36.0257  255 255 255
-73.9409 4.10704 -44.7201  255 255 255
-110.311 -9.48661 -27.4152  255 255 255
-110.311 -9.48661 -27.4152  255 255 255
9.28667 25.5056 -70.5234  255 255 255
6.52936 24.4999 -70.621  255 255 255
-103.131 -8.43794 -28.2984  255 255 255
3.46583 20.3374 -63.7862  255 255 255
5.59133 21.0175 -65.1436  255 255 255
58.985 32.6883 -40.2333  255 255 255
5.91483 18.4049 -62.3024  255 255 255
5.83332 18.3634 -61.266  255 255 255
10.1447 19.2859 -62.4392  255 255 255
5.16211 17.4267 -60.923  255 255 255
56.294 29.8741 -50.38  255 255 255
33.4649 23.0939 -64.8966  255 255 255
29.514 20.5607 -63.8259  255 255 255
-49.6344 -5.17263 -31.9418  255 255 255
-10.668 2.92336 29.2653  255 255 255
32.9708 16.9445 -57.6898  255 255 255
-88.6005 -18.2769 -16.3034  255 255 255
-51.2282 -10.3333 -25.5136  255 255 255
-18.9567 -2.44788 27.5668  255 255 255
36.4602 7.10434 -46.2233  255 255 255
-6.66108 -4.05927 36.9677  255 255 255
-6.65119 -4.05835 36.7874  255 255 255
11.8763 -0.413775 30.4798  255 255 255
-3.20338 -4.8376 38.0494  255 255 255
0.613234 -4.55988 37.7192  255 255 255
-55.0554 -25.4035 -6.00901  255 255 255
5.64415 -5.75457 36.9879  255 255 255
-53.8048 -27.3183 -3.96083  255 255 255
-51.3556 -29.8034 -0.573965  255 255 255
9.23715 -9.16932 36.5239  255 255 255
-56.0704 -32.5297 3.12034  255 255 255
-53.5417 -32.2765 2.04457  255 255 255
-68.2313 -39.0323 10.8341  255 255 255
-99.8092 -48.3912 22.3661  255 255 255
-62.299 -39.9094 11.7492  255 255 255
-13.4106 -20.7832 38.6332  255 255 255
-80.6581 -44.7632 18.9259  255 255 255
62.1449 -6.87658 -7.17131  255 255 255
-4.80077 -19.7146 39.2677  255 255 255
5.54698 -16.7286 38.984  255 255 255
30.338 -12.7379 20.6891  255 255 255
-80.4255 -47.0338 21.1118  255 255 255
