ply
format ascii 1.0
element vertex 1247
property float x
property float y
property float z
property uchar red
property uchar green
property uchar blue
end_header
-15.5639 -60.4254 37.0075  255 255 255
4.48804 -67.4269 43.39  255 255 255
-2.73493 -64.9514 41.011  255 255 255
-36.8977 -53.2937 30.3424  255 255 255
-29.8081 -56.1346 33.3741  255 255 255
-28.9244 -56.6587 33.8264  255 255 255
-28.3845 -56.972 33.9443  255 255 255
0.0558302 -66.9831 43.0391  255 255 255
-7.69236 -64.678 40.9421  255 255 255
-18.7269 -60.9314 37.4209  255 255 255
4.85944 -69.3317 45.5097  255 255 255
-17.9106 -64.3034 41.0928  255 255 255
-14.937 -65.3284 42.1952  255 255 255
-23.95 -62.6014 39.7748  255 255 255
-34.2384 -61.7592 39.3165  255 255 255
-5.83753 85.7669 -40.4455  255 255 255
62.0328 98.0766 -82.8113  255 255 255
60.3614 96.107 -80.4246  255 255 255
-14.9537 82.8367 -35.7178  255 255 255
50.8965 56.9893 -8.75598  255 255 255
11.5486 86.1726 -53.4943  255 255 255
55.1321 52.1901 -3.19308  255 255 255
66.0761 93.904 -87.1681  255 255 255
97.3554 98.8094 -107.445  255 255 255
97.3554 98.8094 -107.445  255 255 255
39.6116 89.1747 -71.7833  255 255 255
55.6966 50.5749 -2.82249  255 255 255
95.4841 97.1774 -106.934  255 255 255
29.6811 83.3158 -68.58  255 255 255
-15.7816 76.1015 -40.8445  255 255 255
-7.03332 77.1483 -46.9606  255 255 255
-14.7048 75.2785 -42.0953  255 255 255
81.4173 87.9709 -103.502  255 255 255
50.8988 34.8274 16.8321  255 255 255
41.9125 82.5301 -79.1723  255 255 255
41.9125 82.5301 -79.1723  255 255 255
54.7584 84.1325 -87.6118  255 255 255
77.8077 87.1344 -102.677  255 255 255
56.0022 83.8716 -88.4607  255 255 255
54.8169 83.5817 -88.3322  255 255 255
54.5859 30.9588 21.3652  255 255 255
57.0126 28.0259 26.0796  255 255 255
57.7657 27.0935 26.1589  255 255 255
57.2004 41.3383 -4.47367  255 255 255
29.385 78.7402 -73.8182  255 255 255
51.4226 46.0868 -12.8379  255 255 255
52.9029 30.1574 18.7104  255 255 255
-18.2735 71.2135 -43.2579  255 255 255
-5.16789 72.7153 -52.8612  255 255 255
51.6238 79.1743 -89.9382  255 255 255
-2.08838 72.1642 -55.1173  255 255 255
49.6513 31.7227 12.6712  255 255 255
56.6605 78.417 -94.0709  255 255 255
-2.84649 70.0928 -51.3169  255 255 255
54.9399 39.8226 -9.78742  255 255 255
55.5057 39.2062 -8.66271  255 255 255
55.5057 39.2062 -8.66271  255 255 255
27.5774 74.6585 -76.6295  255 255 255
18.4737 72.7048 -70.1317  255 255 255
18.4737 72.7048 -70.1317  255 255 255
49.6366 75.4179 -89.8786  255 255 255
56.0968 76.1393 -94.2192  255 255 255
42.9689 75.318 -87.0821  255 255 255
53.7041 27.0223 16.7214  255 255 255
53.5209 75.6932 -93.6297  255 255 255
53.7831 75.8799 -94.1363  255 255 255
43.308 74.6684 -87.202  255 255 255
30.788 73.1104 -79.4232  255 255 255
-0.485842 69.3214 -58.9144  255 255 255
-0.479985 69.3261 -58.9263  255 255 255
-21.0741 66.9107 -44.6476  255 255 255
44.1136 72.4901 -87.9765  255 255 255
53.208 24.9568 15.9187  255 255 255
7.08861 68.1789 -64.4816  255 255 255
22.9995 70.1791 -76.2839  255 255 255
-9.95015 66.7538 -53.9989  255 255 255
47.0297 71.8058 -91.9114  255 255 255
52.9925 24.9427 14.8994  255 255 255
2.22623 66.6123 -62.2242  255 255 255
13.6023 65.7217 -71.7891  255 255 255
10.7232 65.879 -71.1373  255 255 255
17.068 65.7662 -74.0903  255 255 255
53.381 20.9088 13.7796  255 255 255
20.6269 63.7284 -76.7488  255 255 255
21.1728 63.4425 -77.1646  255 255 255
49.4651 36.1596 -25.72  255 255 255
-8.04312 61.6016 -60.3305  255 255 255
26.8203 64.0889 -84.8439  255 255 255
13.8684 61.1838 -73.6352  255 255 255
23.4256 61.9838 -84.4901  255 255 255
24.8235 61.2539 -85.0122  255 255 255
0.904394 59.7111 -68.139  255 255 255
-0.236566 58.9925 -66.8638  255 255 255
51.4567 19.2295 8.00878  255 255 255
56.5896 26.8131 -15.4719  255 255 255
23.043 59.9322 -85.693  255 255 255
-17.6914 56.9805 -55.1663  255 255 255
50.2317 19.8051 4.9747  255 255 255
51.5609 18.6007 7.15299  255 255 255
52.3447 17.9844 8.31975  255 255 255
56.9657 13.0199 16.3235  255 255 255
51.1082 17.6105 6.08347  255 255 255
52.8882 14.4774 7.85009  255 255 255
49.8147 16.8967 2.53008  255 255 255
-16.086 52.9078 -60.8649  255 255 255
-17.6603 52.492 -59.8925  255 255 255
54.7161 22.1842 -20.7744  255 255 255
55.4193 21.9515 -21.0875  255 255 255
-21.4726 51.2158 -58.1748  255 255 255
49.3762 26.5256 -33.0113  255 255 255
-13.5329 50.6348 -65.5708  255 255 255
-13.5329 50.6348 -65.5708  255 255 255
52.3314 11.5956 4.95383  255 255 255
48.5071 14.0188 -1.7342  255 255 255
45.7347 27.5353 -41.5151  255 255 255
52.7643 10.2051 4.20264  255 255 255
52.5534 10.1426 4.48308  255 255 255
49.3405 12.023 -1.24  255 255 255
47.2091 23.0549 -39.1139  255 255 255
53.9843 16.4331 -28.8553  255 255 255
54.9789 5.03285 5.86519  255 255 255
-18.8544 43.3278 -64.8171  255 255 255
55.5735 4.03284 6.47032  255 255 255
45.9886 21.3324 -44.0856  255 255 255
45.7983 20.9498 -44.6042  255 255 255
49.2311 7.73259 -5.06332  255 255 255
54.1934 4.11823 3.31237  255 255 255
49.4725 7.08369 -4.82068  255 255 255
56.9279 1.24596 8.37469  255 255 255
50.4593 5.34922 -3.94954  255 255 255
-11.2459 40.1601 -76.0399  255 255 255
-27.1307 40.0987 -64.5755  255 255 255
4.63244 33.8931 -70.1326  255 255 255
14.6235 29.7034 -67.2943  255 255 255
-8.74698 36.968 -73.0555  255 255 255
0.962318 32.0009 -68.7775  255 255 255
10.7535 25.4111 -62.4497  255 255 255
55.6423 -2.71899 2.20628  255 255 255
2.57152 26.2479 -60.8536  255 255 255
11.4325 23.8384 -60.3336  255 255 255
58.8634 -5.69165 7.5703  255 255 255
9.98805 23.3439 -58.6082  255 255 255
8.81316 23.8737 -60.0088  255 255 255
54.1793 -2.88918 -1.15721  255 255 255
-2.87295 26.8507 -62.8904  255 255 255
57.0993 -6.25905 3.05295  255 255 255
48.2758 -0.206717 -12.8316  255 255 255
-2.87357 24.1237 -59.6158  255 255 255
47.2866 0.347988 -14.7429  255 255 255
55.0072 -5.18467 -0.866509  255 255 255
7.07462 -0.679419 24.7346  255 255 255
7.33791 -0.799945 24.9222  255 255 255
51.4593 -4.48358 -7.80832  255 255 255
8.12201 -3.40981 28.7611  255 255 255
-5.84998 18.5716 -53.1772  255 255 255
51.038 -6.06427 -10.198  255 255 255
59.7249 -12.2673 4.76903  255 255 255
58.9134 -11.7172 3.27607  255 255 255
10.8405 -5.38996 28.3808  255 255 255
50.2113 -7.32733 -15.035  255 255 255
-16.6863 18.0493 -51.4411  255 255 255
-10.5256 -0.193418 25.6971  255 255 255
55.9641 -12.9222 -4.74889  255 255 255
3.33191 -6.69592 32.5746  255 255 255
48.1768 -8.2118 -19.3111  255 255 255
4.04476 -7.62743 33.4086  255 255 255
57.391 -14.777 -2.97036  255 255 255
25.6258 -9.39957 11.2332  255 255 255
56.3701 -14.8098 -5.16777  255 255 255
10.9234 -10.3409 31.432  255 255 255
57.8878 -16.7239 -2.6825  255 255 255
-13.5349 -3.28531 26.3759  255 255 255
-15.592 10.132 -42.231  255 255 255
58.5956 -17.8721 -1.28416  255 255 255
5.41808 -10.1007 33.918  255 255 255
59.2917 -18.6151 -0.859442  255 255 255
-12.1705 -5.77249 29.5183  255 255 255
5.86305 -11.9251 34.4731  255 255 255
-1.33122 -10.1946 35.4733  255 255 255
59.9868 -21.8034 -1.8131  255 255 255
-1.21254 -11.3619 35.8356  255 255 255
59.9215 -22.2376 -1.48305  255 255 255
-4.64352 -10.9061 35.1211  255 255 255
-20.0531 -3.65392 13.5113  255 255 255
0.553224 -13.305 35.9578  255 255 255
-23.3635 4.40944 -36.0491  255 255 255
-11.6915 -9.5618 31.8678  255 255 255
23.8451 -19.2118 23.1359  255 255 255
10.532 -16.7518 31.6812  255 255 255
-24.7362 -4.66361 11.0977  255 255 255
10.9257 -17.8903 31.3875  255 255 255
23.0199 -20.5235 24.586  255 255 255
-7.23778 -13.3749 35.2334  255 255 255
-15.8981 -10.2113 28.8166  255 255 255
-8.18382 -13.6193 34.9497  255 255 255
-8.04992 -13.839 35.3314  255 255 255
12.0673 -19.6268 30.4762  255 255 255
-25.7763 -0.767126 -29.7443  255 255 255
-25.7763 -0.767126 -29.7443  255 255 255
-24.8368 -7.21089 13.29  255 255 255
-24.5208 -7.74798 14.4835  255 255 255
-24.301 -2.56848 -27.6468  255 255 255
8.58696 -20.1955 33.1743  255 255 255
20.7445 -23.4217 28.4207  255 255 255
-17.055 -12.4372 28.5652  255 255 255
8.08457 -20.4535 33.5547  255 255 255
-21.8191 -10.1824 21.1549  255 255 255
-7.04348 -16.3471 35.4271  255 255 255
1.91591 -19.0557 36.1001  255 255 255
-18.6971 -11.9363 25.8034  255 255 255
-18.6616 -12.4493 26.2297  255 255 255
13.7108 -22.8272 32.58  255 255 255
-1.75273 -19.6104 36.0498  255 255 255
-14.1317 -15.6593 31.6753  255 255 255
-15.7554 -15.1576 30.2623  255 255 255
-8.45274 -18.0965 34.5837  255 255 255
-11.2944 -17.8644 33.0141  255 255 255
-21.1267 -14.19 25.8637  255 255 255
-1.6667 -21.0662 35.5405  255 255 255
-9.95047 -18.6006 34.1945  255 255 255
-15.3374 -16.6696 30.7928  255 255 255
-21.4281 -14.9908 26.7924  255 255 255
-20.2703 -15.3666 27.2022  255 255 255
-15.5025 -17.1505 30.5565  255 255 255
-23.6924 -13.9177 22.5862  255 255 255
-12.9686 -18.3046 32.3384  255 255 255
13.2372 -28.4279 34.5859  255 255 255
-16.4854 -19.9364 32.2387  255 255 255
-25.8544 -16.7712 24.7086  255 255 255
-3.15378 -25.2351 36.9842  255 255 255
-3.89343 -25.1324 36.9451  255 255 255
-29.0149 -17.1008 24.8827  255 255 255
-8.61682 -24.2636 36.3734  255 255 255
-25.198 -18.5853 26.6947  255 255 255
-6.32835 -25.9806 36.2679  255 255 255
-27.1131 -19.7776 25.1217  255 255 255
-1.11796 -30.1696 37.7804  255 255 255
-26.4294 -21.7719 25.2882  255 255 255
-24.407 -23.0632 31.9118  255 255 255
-6.48117 -30.2928 38.347  255 255 255
-6.44069 -30.2907 38.2084  255 255 255
-1.91341 -31.8276 38.5537  255 255 255
2.3227 -34.0964 36.4322  255 255 255
4.27977 -35.1821 35.0984  255 255 255
-17.1397 -28.2253 34.5863  255 255 255
-18.2888 -29.6853 32.0315  255 255 255
-9.99552 -32.851 35.5123  255 255 255
-13.8482 -32.9065 33.4779  255 255 255
-5.44043 -35.9631 36.0338  255 255 255
4.90363 -39.8185 31.0056  255 255 255
1.33313 -38.7542 32.2543  255 255 255
-14.5333 -34.2171 31.9996  255 255 255
0.636137 -39.3933 32.3658  255 255 255
0.611235 -39.3795 32.4216  255 255 255
-20.6699 -33.5637 27.9654  255 255 255
-49.5225 -24.9457 -1.11321  255 255 255
-21.2142 -34.1416 25.3044  255 255 255
-11.2362 -37.5523 31.356  255 255 255
-23.2542 -35.4336 23.1626  255 255 255
-18.1653 -37.3235 26.3857  255 255 255
-4.51036 -42.8955 30.2491  255 255 255
-23.3458 -36.826 22.6855  255 255 255
-14.1092 -40.1646 28.238  255 255 255
-45.1619 -33.8875 9.07563  255 255 255
-47.2268 -34.1603 8.8878  255 255 255
-47.3549 -34.348 9.40297  255 255 255
-7.82683 -50.076 29.0398  255 255 255
-9.82832 -51.1458 29.9716  255 255 255
-42.9215 -40.7332 16.2398  255 255 255
-41.6985 -41.3671 17.3242  255 255 255
-47.3047 -40.6128 16.571  255 255 255
4.59307 -58.816 33.6274  255 255 255
-37.8286 -45.393 21.428  255 255 255
15.3207 -63.9883 38.7112  255 255 255
-33.8205 -48.1067 24.4842  255 255 255
-33.6812 -48.4828 24.39  255 255 255
-42.0323 -46.0533 22.7587  255 255 255
-42.8146 -46.373 22.8206  255 255 255
4.02511 -63.9356 39.6032  255 255 255
-27.7196 -53.3521 30.024  255 255 255
-23.9548 -56.766 33.8045  255 255 255
-23.9548 -56.766 33.8045  255 255 255
9.4392 -68.792 44.4315  255 255 255
6.47383 -68.2324 44.1422  255 255 255
2.45843 -67.1487 43.0983  255 255 255
-36.0949 -54.0661 31.123  255 255 255
-8.76241 -64.1582 40.9218  255 255 255
-35.2686 -55.247 32.3891  255 255 255
-32.6278 -57.6595 34.449  255 255 255
-38.5393 -56.4185 33.9539  255 255 255
-20.4347 -63.3437 40.2884  255 255 255
-35.8952 -58.447 35.8177  255 255 255
-24.3587 -63.1974 40.252  255 255 255
-24.4056 -63.1017 40.4283  255 255 255
-25.1643 -63.0006 40.5406  255 255 255
-25.1113 -63.1097 40.3226  255 255 255
-33.5076 -61.0629 38.5512  255 255 255
31.9442 91.8643 -63.5503  255 255 255
43.6656 93.9107 -70.6494  255 255 255
50.0999 58.3837 -10.4257  255 255 255
45.3637 91.8927 -73.506  255 255 255
45.3637 91.8927 -73.506  255 255 255
67.3146 94.9171 -86.3012  255 255 255
66.8784 94.0435 -87.2757  255 255 255
96.2924 98.2834 -107.354  255 255 255
37.8619 87.4149 -72.0246  255 255 255
54.0445 51.1158 -7.42618  255 255 255
55.9731 89.123 -83.8908  255 255 255
57.1456 89.0876 -85.2577  255 255 255
57.2477 87.799 -85.9296  255 255 255
78.3054 90.0455 -100.333  255 255 255
51.9203 34.1269 18.8115  255 255 255
12.4964 78.8223 -60.2804  255 255 255
73.2048 86.3725 -99.9027  255 255 255
58.3622 83.7631 -89.6414  255 255 255
49.5554 35.0836 14.4574  255 255 255
44.445 81.8294 -83.0038  255 255 255
51.7994 47.1747 -13.6795  255 255 255
56.3526 27.9939 24.9443  255 255 255
56.3526 27.9939 24.9443  255 255 255
46.6876 79.86 -85.489  255 255 255
60.7806 79.6195 -94.3871  255 255 255
55.7906 25.9508 23.0857  255 255 255
32.468 76.1107 -78.9071  255 255 255
48.5174 45.633 -23.3745  255 255 255
14.3542 70.7104 -68.1595  255 255 255
-13.945 66.8686 -50.4687  255 255 255
24.1024 67.4796 -77.7847  255 255 255
24.1802 67.5412 -77.9841  255 255 255
54.7732 21.6638 17.3598  255 255 255
49.965 37.9874 -24.732  255 255 255
-7.44732 63.7155 -59.123  255 255 255
28.5708 64.7043 -83.3123  255 255 255
28.2772 63.7965 -84.0453  255 255 255
-1.08046 61.6808 -64.1322  255 255 255
55.0852 17.9426 15.2555  255 255 255
21.9259 62.1654 -82.0443  255 255 255
22.6816 61.7046 -82.1696  255 255 255
22.9563 62.034 -83.1212  255 255 255
7.49982 58.6203 -66.8302  255 255 255
56.6727 27.5104 -14.8177  255 255 255
-5.9279 58.1741 -63.8584  255 255 255
24.198 60.0471 -86.5742  255 255 255
-7.75914 56.4567 -63.1749  255 255 255
29.8839 58.7588 -90.9321  255 255 255
29.8839 58.7588 -90.9321  255 255 255
37.3857 57.5268 -98.1258  255 255 255
-9.86908 54.5958 -63.4012  255 255 255
50.691 17.0238 4.6404  255 255 255
55.9879 10.0744 11.2451  255 255 255
41.2341 35.6605 -75.1405  255 255 255
-17.9454 45.5795 -64.8079  255 255 255
48.2329 11.2601 -5.67495  255 255 255
53.0903 16.0058 -32.0218  255 255 255
-8.27056 43.6433 -76.0894  255 255 255
-12.4939 41.0903 -74.792  255 255 255
54.5275 1.38621 2.5925  255 255 255
58.1282 -1.81816 8.24771  255 255 255
10.6114 26.4233 -63.1414  255 255 255
2.42228 26.4261 -62.7716  255 255 255
0.734281 24.4151 -60.1796  255 255 255
48.2245 -0.300166 -11.6363  255 255 255
50.1193 -1.22544 -9.65116  255 255 255
51.7674 -2.78349 -6.4859  255 255 255
51.0669 -2.30218 -7.94529  255 255 255
51.0263 -2.3657 -7.89826  255 255 255
57.8339 -7.06485 4.00496  255 255 255
-0.101753 16.344 -51.5561  255 255 255
6.99024 -3.02292 26.132  255 255 255
47.2831 -3.96545 -17.5891  255 255 255
59.5739 -11.8859 3.70442  255 255 255
7.85836 -4.88529 30.0579  255 255 255
48.7894 -7.18552 -16.1096  255 255 255
48.8345 -7.17956 -16.1664  255 255 255
25.6954 -9.41668 11.0989  255 255 255
58.606 -16.241 1.11636  255 255 255
48.0799 -10.3641 -20.2625  255 255 255
2.17409 -8.50503 34.2401  255 255 255
11.4765 -10.9743 30.9892  255 255 255
53.1702 -15.7657 -11.5893  255 255 255
53.2431 -15.766 -11.6998  255 255 255
59.0526 -19.1459 -1.52368  255 255 255
-14.772 -4.05679 26.1087  255 255 255
58.2222 -19.3941 -4.3277  255 255 255
4.8068 -12.0579 34.4594  255 255 255
11.14 -13.4789 31.7667  255 255 255
52.4721 -16.9521 -14.51  255 255 255
10.0408 -13.4301 32.9458  255 255 255
-0.116641 -12.6228 35.9441  255 255 255
-9.10968 -10.2495 33.8079  255 255 255
-21.4555 -4.24176 14.3871  255 255 255
-26.2074 -1.93736 7.76013  255 255 255
-22.3366 -3.82434 9.33771  255 255 255
-27.3148 4.01773 -35.2038  255 255 255
-18.9388 -7.74399 23.2857  255 255 255
2.23769 -16.9778 36.044  255 255 255
-8.47729 -14.4303 34.899  255 255 255
-21.0577 -8.82558 19.726  255 255 255
11.9553 -19.9813 30.319  255 255 255
-11.0637 -13.8578 33.6189  255 255 255
-19.0252 -11.5005 25.3899  255 255 255
46.4579 -27.3874 -5.15093  255 255 255
-2.38395 -18.5319 36.2006  255 255 255
-26.3137 -9.62921 16.2742  255 255 255
-17.7148 -14.6647 28.0689  255 255 255
-3.00017 -19.9341 35.805  255 255 255
44.7504 -30.2602 -3.73813  255 255 255
-12.2048 -17.0222 32.7542  255 255 255
18.2166 -26.2309 31.2586  255 255 255
-20.5539 -14.3712 26.4658  255 255 255
10.9484 -24.7543 33.7732  255 255 255
-20.1762 -15.0319 27.0294  255 255 255
-3.46592 -21.9 35.3061  255 255 255
-14.4593 -19.156 31.1309  255 255 255
-11.8772 -20.3598 32.3577  255 255 255
-17.6405 -18.9858 31.0854  255 255 255
15.0964 -29.722 33.6677  255 255 255
-8.31599 -25.1119 36.0633  255 255 255
-1.36406 -27.3459 36.334  255 255 255
2.37042 -29.8775 37.0901  255 255 255
-28.6458 -20.4253 21.5114  255 255 255
-26.2073 -21.6539 26.2135  255 255 255
-23.9649 -23.1562 31.4771  255 255 255
-9.59281 -28.53 36.696  255 255 255
-12.4337 -28.4142 36.6524  255 255 255
12.2194 -37.2208 28.9856  255 255 255
-18.2398 -27.3715 34.1452  255 255 255
-23.383 -26.6179 28.9146  255 255 255
11.8334 -39.5122 27.6087  255 255 255
12.0992 -39.5678 27.001  255 255 255
-15.7968 -33.2874 31.9621  255 255 255
-5.49334 -36.8552 35.3815  255 255 255
-18.5841 -32.7164 29.362  255 255 255
-22.4871 -31.7572 25.9294  255 255 255
-25.8125 -31.1623 20.3721  255 255 255
1.26643 -40.3922 31.3597  255 255 255
1.26643 -40.3922 31.3597  255 255 255
-0.940298 -39.8086 31.0474  255 255 255
-1.38767 -40.2374 31.2701  255 255 255
-1.38767 -40.2374 31.2701  255 255 255
5.72934 -43.0257 29.5452  255 255 255
-20.1576 -34.9405 27.1936  255 255 255
-12.5783 -38.8918 29.1792  255 255 255
-47.1842 -29.0501 3.74855  255 255 255
-47.1833 -29.0267 4.02254  255 255 255
-44.7556 -36.5368 12.1851  255 255 255
-7.84625 -49.2776 29.1588  255 255 255
-6.34171 -50.3653 29.3941  255 255 255
6.57482 -58.2623 32.8203  255 255 255
-38.0789 -45.6265 21.7568  255 255 255
-34.9609 -50.1104 26.8656  255 255 255
0.0457158 -62.0779 37.5323  255 255 255
1.14658 -66.0029 41.885  255 255 255
-30.8504 -55.7731 32.6378  255 255 255
-30.4249 -56.1857 33.099  255 255 255
-25.8698 -63.9753 41.9459  255 255 255
-33.1808 -61.9131 39.6188  255 255 255
55.5956 57.5461 -3.33634  255 255 255
82.5419 100.975 -93.8205  255 255 255
23.1248 90.4028 -58.3766  255 255 255
23.1248 90.4028 -58.3766  255 255 255
63.1585 95.8348 -82.3466  255 255 255
48.6115 60.1103 -12.3266  255 255 255
42.7469 92.268 -72.0355  255 255 255
-2.65371 83.174 -44.5747  255 255 255
50.2601 56.523 -11.5538  255 255 255
54.8412 38.9336 19.5122  255 255 255
-9.37601 78.6692 -42.7876  255 255 255
55.1751 87.6597 -85.9736  255 255 255
54.6404 87.1312 -84.7046  255 255 255
-7.9389 73.5221 -49.4259  255 255 255
11.354 75.1594 -61.484  255 255 255
59.8977 80.7643 -93.8326  255 255 255
52.8973 29.0044 17.8299  255 255 255
32.8739 74.5253 -79.6292  255 255 255
45.4432 71.8612 -87.9777  255 255 255
45.623 71.9772 -88.3563  255 255 255
24.4923 70.1008 -76.5195  255 255 255
33.0308 70.5094 -82.4195  255 255 255
39.7339 69.1017 -85.6741  255 255 255
54.3922 21.4097 16.4059  255 255 255
-1.71655 64.1993 -61.2223  255 255 255
-1.69192 64.2448 -61.3444  255 255 255
4.26226 60.2842 -68.128  255 255 255
53.5869 18.022 12.0277  255 255 255
53.5869 18.022 12.0277  255 255 255
-18.5336 57.8164 -54.4295  255 255 255
48.4673 21.5886 1.99338  255 255 255
53.1456 27.9376 -23.2326  255 255 255
47.7985 31.5923 -31.1613  255 255 255
59.5414 50.728 -91.3938  255 255 255
60.0981 50.6223 -94.142  255 255 255
51.999 15.8041 7.16631  255 255 255
-14.2257 53.3608 -61.7679  255 255 255
-18.4222 52.9886 -58.9009  255 255 255
54.9037 22.9353 -21.971  255 255 255
46.6217 27.1027 -40.0323  255 255 255
49.3406 22.8791 -35.7403  255 255 255
48.6039 23.0324 -37.2837  255 255 255
49.5777 11.6185 -2.60477  255 255 255
51.2225 18.0869 -34.2843  255 255 255
52.2697 14.089 -33.3802  255 255 255
52.7755 12.833 -34.398  255 255 255
52.3133 4.11937 -4.75618  255 255 255
48.6842 15.3741 -42.1931  255 255 255
52.3054 12.1059 -34.9341  255 255 255
49.2632 14.1873 -41.0074  255 255 255
48.9697 14.0819 -42.0975  255 255 255
-26.2883 38.3328 -66.0774  255 255 255
25.0907 24.7329 -62.3856  255 255 255
52.0447 1.76079 -2.95243  255 255 255
-16.8917 37.5439 -72.9199  255 255 255
12.2793 23.6044 -61.3874  255 255 255
59.4389 -5.86322 7.33998  255 255 255
7.20023 22.5695 -58.6277  255 255 255
3.69432 19.3228 -54.3391  255 255 255
50.0575 -3.92815 -11.7773  255 255 255
59.7331 -11.3897 5.18944  255 255 255
54.3237 -10.7119 -6.12781  255 255 255
57.8753 -14.9233 -2.08544  255 255 255
-8.96591 -5.53419 31.3028  255 255 255
58.6289 -18.5466 -2.35822  255 255 255
-1.41257 -9.03496 34.6694  255 255 255
57.4383 -19.0323 -5.39793  255 255 255
-16.9667 -3.7195 22.8821  255 255 255
52.8963 -17.5486 -13.6291  255 255 255
-23.5626 7.34752 -38.9481  255 255 255
58.5678 -21.9302 -3.70482  255 255 255
-0.57619 -12.9693 36.0333  255 255 255
59.5912 -23.8733 -4.08421  255 255 255
-29.462 5.09949 -36.1562  255 255 255
-0.921532 -15.7149 36.3077  255 255 255
-24.9438 -0.416552 -30.4227  255 255 255
-13.1914 -14.6079 32.6229  255 255 255
-19.8256 -13.3518 24.8782  255 255 255
-10.0471 -17.3444 34.1346  255 255 255
1.89111 -21.1832 35.2375  255 255 255
-14.5487 -16.2463 31.3807  255 255 255
-3.04434 -20.5886 35.3257  255 255 255
-6.51009 -19.6992 35.3039  255 255 255
-18.3122 -17.2193 29.4119  255 255 255
-17.3453 -17.7313 29.5807  255 255 255
-8.45115 -20.947 34.3048  255 255 255
-16.5539 -18.8705 30.9142  255 255 255
-2.79304 -24.9191 36.8374  255 255 255
-7.7053 -23.5323 35.2721  255 255 255
-13.6712 -21.6679 33.8819  255 255 255
-18.586 -23.7742 31.5971  255 255 255
-19.1148 -24.0019 32.2107  255 255 255
-19.1148 -24.0019 32.2107  255 255 255
10.882 -39.26 28.4588  255 255 255
12.7203 -40.1365 26.3303  255 255 255
9.43189 -39.2607 29.1972  255 255 255
-10.4943 -32.9756 34.8932  255 255 255
-5.49149 -37.7316 33.4098  255 255 255
-19.0741 -35.435 27.6513  255 255 255
2.96283 -43.277 28.4854  255 255 255
6.21047 -46.1665 30.8104  255 255 255
-43.9157 -30.2691 4.8568  255 255 255
-5.99353 -42.8663 30.6482  255 255 255
-49.3078 -31.8252 6.7748  255 255 255
-16.9633 -42.7223 26.5265  255 255 255
-45.1434 -34.6483 8.81763  255 255 255
-49.5412 -34.5729 9.95258  255 255 255
-42.8128 -39.7521 15.7398  255 255 255
-36.8081 -44.8435 20.8572  255 255 255
-43.977 -43.2726 19.391  255 255 255
-39.7001 -45.1584 21.1425  255 255 255
-42.8869 -46.4883 23.0448  255 255 255
-27.4031 -52.2111 28.7187  255 255 255
-37.67 -50.0198 26.854  255 255 255
-30.1735 -53.0307 29.7483  255 255 255
7.1434 -67.8897 43.8535  255 255 255
-34.0622 -56.7728 34.447  255 255 255
-36.0191 -59.0096 36.6167  255 255 255
-25.6047 -62.6431 40.3695  255 255 255
-26.1073 -63.0404 40.1147  255 255 255
-34.4315 -60.7295 38.4023  255 255 255
-26.2025 -63.5685 41.3303  255 255 255
-33.7931 -61.4675 39.1349  255 255 255
49.4349 60.0774 -10.6509  255 255 255
65.6787 93.7991 -90.8099  255 255 255
51.0898 39.7534 18.0413  255 255 255
-4.70327 81.2273 -44.9602  255 255 255
60.0458 88.4447 -87.4643  255 255 255
58.8534 32.3521 25.2392  255 255 255
56.9844 29.3202 27.8433  255 255 255
52.6447 48.9491 -11.2859  255 255 255
70.2735 86.6471 -97.1211  255 255 255
66.5896 79.7568 -100.189  255 255 255
-18.9224 69.6333 -44.3437  255 255 255
73.4937 78.9673 -105.475  255 255 255
73.6149 79.0352 -105.731  255 255 255
41.1854 69.6636 -86.9519  255 255 255
53.1329 20.9526 12.7139  255 255 255
-9.72084 61.8946 -58.6444  255 255 255
19.8531 61.6441 -77.2882  255 255 255
20.1409 61.9449 -78.4222  255 255 255
52.1031 18.5259 9.00579  255 255 255
-9.03932 56.6306 -63.806  255 255 255
55.2923 23.7904 -20.3576  255 255 255
55.2471 23.7954 -20.3  255 255 255
-15.6331 48.9134 -65.1932  255 255 255
50.2625 22.3443 -33.6576  255 255 255
51.9992 6.96409 0.634982  255 255 255
51.1335 15.8504 -35.4243  255 255 255
58.2129 -2.91846 7.47999  255 255 255
51.6624 10.1491 -38.4245  255 255 255
1.58419 27.0947 -63.2075  255 255 255
10.302 18.2975 -53.4754  255 255 255
50.7751 -6.83395 -11.888  255 255 255
51.793 -8.54793 -10.8131  255 255 255
6.63318 -6.55908 31.4847  255 255 255
6.2537 -6.64455 30.8166  255 255 255
53.2095 -12.6862 -10.2907  255 255 255
4.29409 -9.37477 34.1656  255 255 255
56.9065 -16.1701 -4.81794  255 255 255
-5.01383 -7.29457 33.5361  255 255 255
60.1141 -20.7699 -2.41709  255 255 255
2.79747 -12.4438 35.3452  255 255 255
-23.223 5.26772 -36.502  255 255 255
6.9528 -16.639 34.0036  255 255 255
-9.52913 -11.9918 33.861  255 255 255
4.7434 -17.0463 35.3137  255 255 255
2.52604 -18.3272 35.5039  255 255 255
-21.7496 -9.97379 21.0675  255 255 255
-21.6251 -13.6267 25.0899  255 255 255
-24.3816 -12.382 19.7516  255 255 255
-24.3816 -12.382 19.7516  255 255 255
2.13335 -22.0376 35.0727  255 255 255
2.13335 -22.0376 35.0727  255 255 255
-18.7409 -15.4149 27.2673  255 255 255
-17.0978 -16.6261 29.1047  255 255 255
-17.9852 -16.2918 28.3743  255 255 255
-13.0713 -18.5587 32.2315  255 255 255
0.0873249 -23.0143 34.746  255 255 255
-18.2409 -19.6214 31.6876  255 255 255
-12.7098 -21.4448 33.4841  255 255 255
-1.83327 -26.1981 37.0076  255 255 255
13.2961 -31.5524 33.3447  255 255 255
-16.634 -23.4962 32.1249  255 255 255
7.15649 -32.0002 38.0345  255 255 255
-26.3803 -21.04 26.2479  255 255 255
-14.8959 -25.2109 33.2563  255 255 255
-7.50019 -28.3082 34.9398  255 255 255
5.82172 -33.9029 36.2343  255 255 255
-23.2133 -25.0746 30.6609  255 255 255
5.35896 -38.1156 31.3982  255 255 255
11.9272 -41.2098 25.6682  255 255 255
-46.2186 -26.3846 0.204415  255 255 255
-46.2168 -26.4472 0.127266  255 255 255
-12.0813 -39.5986 28.4084  255 255 255
-48.6804 -28.6395 3.47576  255 255 255
-14.0905 -42.3221 26.363  255 255 255
-36.5496 -45.4989 21.322  255 255 255
-41.1551 -44.7681 20.2791  255 255 255
12.3502 -64.5888 39.7353  255 255 255
-9.52362 -60.402 36.2776  255 255 255
9.41166 -68.0306 43.8999  255 255 255
-8.19551 -63.4655 39.9518  255 255 255
-5.50432 -67.5633 45.1947  255 255 255
-28.7795 -61.9436 39.2049  255 255 255
52.5203 50.637 -8.92596  255 255 255
72.2587 86.3122 -98.9227  255 255 255
-24.1718 55.7471 -51.3313  255 255 255
50.2345 26.3518 -30.6161  255 255 255
-12.5858 48.7769 -67.5243  255 255 255
13.3174 24.5832 -61.7231  255 255 255
-2.62626 -13.5292 35.8199  255 255 255
-19.4994 -6.77358 20.6353  255 255 255
-18.9605 -10.6249 25.7406  255 255 255
-14.0389 -13.1385 31.5717  255 255 255
-12.423 -15.8935 32.9912  255 255 255
-11.2259 -20.5915 33.3293  255 255 255
6.07653 -30.0097 37.4117  255 255 255
2.38401 -29.3768 38.8965  255 255 255
-14.4145 -25.5635 33.4919  255 255 255
-19.0301 -24.5013 32.3468  255 255 255
5.61874 -34.6672 34.3916  255 255 255
-9.05752 -35.9318 33.3575  255 255 255
-26.264 -32.3619 19.7279  255 255 255
-22.6524 -35.1091 23.2428  255 255 255
-41.5909 -40.8023 16.511  255 255 255
-46.1757 -40.5344 16.421  255 255 255
-25.6731 -53.3261 29.5206  255 255 255
-36.6693 -50.9769 27.9961  255 255 255
-18.7308 53.0692 -59.7401  255 255 255
-20.714 49.1324 -58.4847  255 255 255
48.5791 14.542 -4.16135  255 255 255
52.7102 5.12714 -0.201021  255 255 255
51.846 4.09466 -0.709639  255 255 255
-2.17327 2.72109 21.9112  255 255 255
-21.6963 -0.155009 5.39762  255 255 255
-23.1897 -1.16233 6.35771  255 255 255
-22.3815 -1.86255 7.10906  255 255 255
-3.61626 -12.4449 35.9069  255 255 255
-9.63504 -17.6114 35.8794  255 255 255
1.62915 -25.9333 36.8454  255 255 255
-2.86239 -25.9074 37.2589  255 255 255
-6.61095 -25.1169 36.5205  255 255 255
-14.0621 -24.977 33.944  255 255 255
2.84322 -30.9846 38.1435  255 255 255
-13.0436 -26.5071 34.1092  255 255 255
15.7085 -39.0775 26.2914  255 255 255
13.5533 -38.9417 26.2295  255 255 255
13.5533 -38.9417 26.2295  255 255 255
1.20209 -39.2079 32.2242  255 255 255
4.75829 -41.7206 29.8074  255 255 255
5.01157 -41.8429 29.1222  255 255 255
-25.9802 -33.3113 19.8806  255 255 255
4.73276 -43.6856 28.7671  255 255 255
-23.6977 -34.624 22.8478  255 255 255
-45.8071 -38.5887 14.4488  255 255 255
-46.8879 -39.2947 15.3235  255 255 255
-32.8138 -46.2058 23.4703  255 255 255
-38.328 -44.8523 21.1546  255 255 255
10.0269 -64.4623 39.1322  255 255 255
11.3592 -66.1635 41.4887  255 255 255
48.0036 57.5379 -14.3321  255 255 255
66.4205 89.9944 -91.5089  255 255 255
20.3458 78.667 -67.3431  255 255 255
57.0548 38.8108 -12.7332  255 255 255
25.2528 65.6449 -78.1468  255 255 255
54.4687 8.57074 7.52702  255 255 255
51.3554 6.74736 -1.35303  255 255 255
11.8767 26.2832 -62.8082  255 255 255
-19.2267 -0.574106 8.30964  255 255 255
-4.55394 -16.5633 36.1337  255 255 255
1.35646 -24.9649 36.4028  255 255 255
-44.8785 -29.202 4.07381  255 255 255
-26.7964 -36.2174 22.6055  255 255 255
-31.3764 -50.1898 25.9418  255 255 255
-40.8859 -47.6631 24.2173  255 255 255
24.5083 89.5771 -61.112  255 255 255
8.8655 24.3142 -60.369  255 255 255
-7.00405 -12.1033 35.1777  255 255 255
5.40273 -32.2853 38.1543  255 255 255
3.18552 -40.9922 30.3592  255 255 255
-20.4681 -33.4837 26.6621  255 255 255
-44.072 -39.8807 15.3659  255 255 255
-44.072 -39.8807 15.3659  255 255 255
-44.3359 -41.3035 17.7907  255 255 255
61.7768 90.0992 -86.7059  255 255 255
11.8182 82.8609 -57.3349  255 255 255
51.4231 48.9131 -12.8793  255 255 255
55.3896 41.4546 -16.0144  255 255 255
-21.7102 -2.25423 10.4499  255 255 255
-9.23064 -14.4856 34.0771  255 255 255
15.4486 -21.9065 34.0722  255 255 255
0.205498 -32.4147 38.5617  255 255 255
-14.7817 -28.2529 37.0437  255 255 255
-32.0287 -51.7245 27.7452  255 255 255
36.8309 65.2992 -90.8778  255 255 255
36.8309 65.2992 -90.8778  255 255 255
-7.53108 55.4714 -67.2343  255 255 255
-11.8646 -12.6411 32.5947  255 255 255
5.64437 -26.2526 43.243  255 255 255
-4.3119 -30.704 38.5837  255 255 255
-10.6955 -25.8812 33.647  255 255 255
-10.6955 -25.8812 33.647  255 255 255
-8.26653 59.19 -62.9651  255 255 255
-38.6635 55.3607 -41.6436  255 255 255
-17.9632 57.2919 -57.4839  255 255 255
-59.6634 52.9899 -28.5116  255 255 255
-37.8728 54.4464 -43.1722  255 255 255
-28.8856 55.4889 -50.2794  255 255 255
-28.8856 55.4889 -50.2794  255 255 255
-25.9334 55.0483 -52.2757  255 255 255
49.1706 33.0631 -28.0151  255 255 255
-29.7157 52.1432 -52.3754  255 255 255
49.0596 21.4591 4.4276  255 255 255
54.6532 27.7168 -17.9399  255 255 255
-35.7728 50 -48.9003  255 255 255
-50.2442 47.1335 -38.8555  255 255 255
55.6901 14.5074 15.2242  255 255 255
-46.6389 46.8595 -42.5814  255 255 255
-36.4544 47.4906 -50.2396  255 255 255
-26.7865 47.3314 -55.4626  255 255 255
52.1089 16.5111 7.6423  255 255 255
-7.30038 49.192 -71.6399  255 255 255
47.7729 29.343 -33.5674  255 255 255
-50.0129 46.2594 -41.1728  255 255 255
4.01655 48.553 -81.5847  255 255 255
4.48205 48.1286 -82.2942  255 255 255
54.4419 22.785 -23.0706  255 255 255
-42.5986 44.2631 -48.9802  255 255 255
-26.9152 44.363 -60.7028  255 255 255
-49.6178 41.9214 -44.0479  255 255 255
-49.6178 41.9214 -44.0479  255 255 255
-26.674 43.1961 -62.1384  255 255 255
-63.3522 41.5379 -34.7371  255 255 255
-43.1076 41.9961 -48.9042  255 255 255
-27.6794 42.9099 -61.6676  255 255 255
-56.8113 41.2119 -38.9039  255 255 255
-46.7429 41.4985 -46.3405  255 255 255
-52.2839 41.2741 -42.1348  255 255 255
-62.0232 41.2575 -36.9367  255 255 255
-62.9145 41.0172 -35.9801  255 255 255
-55.0863 41.1496 -41.1617  255 255 255
-52.854 40.8375 -42.4321  255 255 255
-77.1642 40.6036 -26.6095  255 255 255
-51.3788 40.1636 -44.238  255 255 255
6.83916 39.8806 -78.2151  255 255 255
6.09321 39.3251 -76.6068  255 255 255
53.1054 19.416 -28.6882  255 255 255
-58.4007 39.2096 -39.9756  255 255 255
-51.5526 38.6498 -43.4969  255 255 255
-45.277 39.7191 -52.1139  255 255 255
-54.0205 39.1237 -44.0385  255 255 255
50.5258 19.8851 -33.8554  255 255 255
50.5258 19.8851 -33.8554  255 255 255
-49.386 38.5693 -47.5616  255 255 255
-50.2479 38.7958 -48.0493  255 255 255
-64.8436 38.39 -37.0495  255 255 255
12.9237 34.8554 -72.5934  255 255 255
-55.3827 38.4836 -44.0859  255 255 255
-61.867 38.2223 -38.9137  255 255 255
-27.1455 38.7292 -64.9481  255 255 255
-73.3848 38.0398 -31.9629  255 255 255
-4.29888 37.0642 -73.5622  255 255 255
-50.8568 37.3843 -47.1011  255 255 255
46.975 25.7734 -63.8192  255 255 255
-10.7342 36.1766 -71.4622  255 255 255
49.7837 18.3304 -36.0722  255 255 255
53.4234 16.0836 -29.7872  255 255 255
-68.3851 36.7878 -35.9051  255 255 255
-54.4807 36.8875 -46.2007  255 255 255
-27.3783 37.1818 -66.82  255 255 255
-71.6397 36.2218 -34.4094  255 255 255
-71.6397 36.2218 -34.4094  255 255 255
-42.6712 35.6078 -54.0131  255 255 255
-70.0526 35.3541 -34.114  255 255 255
-4.0064 31.8345 -66.1374  255 255 255
-9.46659 33.333 -68.9097  255 255 255
-44.4604 22.0141 -8.968  255 255 255
-54.0269 35.5052 -48.0918  255 255 255
1.27359 31.0926 -68.779  255 255 255
-36.6706 34.8995 -60.0132  255 255 255
-7.10653 31.676 -67.7685  255 255 255
-41.3854 35.0173 -58.0916  255 255 255
-0.116978 29.5233 -65.1401  255 255 255
49.6118 7.85694 -4.15116  255 255 255
-2.77262 30.1759 -66.9073  255 255 255
-2.74602 30.2082 -66.9605  255 255 255
-3.98971 29.3357 -64.6473  255 255 255
-4.78175 29.278 -64.5767  255 255 255
51.8269 13.3964 -32.76  255 255 255
52.7818 5.53064 1.25766  255 255 255
52.7818 5.53064 1.25766  255 255 255
-16.1907 31.3232 -66.5067  255 255 255
-16.8447 30.8967 -65.8752  255 255 255
-70.2155 32.2006 -34.0142  255 255 255
-27.2346 31.8057 -65.575  255 255 255
-67.4312 32.5146 -39.2992  255 255 255
-67.4312 32.5146 -39.2992  255 255 255
-65.9935 32.6276 -41.0666  255 255 255
-53.0507 32.3796 -50.3322  255 255 255
-19.9987 29.9467 -64.8629  255 255 255
-8.6652 27.7311 -63.2647  255 255 255
-20.0123 29.41 -64.2865  255 255 255
-29.0584 30.9806 -64.7834  255 255 255
-29.0534 30.9609 -64.7419  255 255 255
-13.3692 27.569 -61.4172  255 255 255
-64.4245 31.8723 -42.2506  255 255 255
-47.8401 31.7068 -57.6663  255 255 255
-48.023 31.4245 -56.4137  255 255 255
-28.8925 29.2735 -63.1271  255 255 255
-65.7521 30.982 -43.1475  255 255 255
22.2263 18.5165 -54.7094  255 255 255
-55.8455 30.2023 -50.5642  255 255 255
62.3988 -2.68444 18.1907  255 255 255
62.2808 -2.42164 15.6563  255 255 255
-43.2741 29.6161 -61.7947  255 255 255
-54.214 29.7583 -53.8602  255 255 255
-27.4707 26.4559 -60.1608  255 255 255
-23.1947 25.6432 -60.2651  255 255 255
-75.2921 31.0481 -43.6536  255 255 255
-0.789758 20.4377 -55.8355  255 255 255
-47.4316 28.9183 -58.7497  255 255 255
-29.4893 26.1398 -60.2267  255 255 255
-66.2435 29.1309 -43.4371  255 255 255
-55.5504 28.963 -53.1846  255 255 255
-53.0954 28.7493 -54.3906  255 255 255
-64.1755 28.9687 -45.7912  255 255 255
-48.2244 28.6197 -59.192  255 255 255
-54.0147 28.2288 -52.522  255 255 255
-54.0147 28.2288 -52.522  255 255 255
-19.4768 23.0294 -57.04  255 255 255
-73.5431 29.4964 -42.6275  255 255 255
-62.5583 28.1606 -46.5871  255 255 255
-78.7137 28.8227 -35.6595  255 255 255
30.7997 12.9096 -49.2829  255 255 255
51.9866 7.66451 -39.086  255 255 255
59.2263 -2.4815 9.00735  255 255 255
-36.8409 25.5425 -58.2391  255 255 255
-36.8409 25.5425 -58.2391  255 255 255
59.3276 -3.03953 11.5447  255 255 255
-40.4245 26.2589 -59.283  255 255 255
-16.6033 21.2373 -54.5003  255 255 255
-53.6039 27.689 -55.9773  255 255 255
-0.0157215 17.5579 -51.4692  255 255 255
-33.1149 24.368 -58.3602  255 255 255
-62.6856 27.4166 -47.6524  255 255 255
-62.8171 27.5683 -48.2243  255 255 255
-34.6238 24.4264 -57.922  255 255 255
-17.5702 20.8019 -54.2302  255 255 255
-61.1204 27.623 -50.6641  255 255 255
-83.1576 28.0722 -32.6801  255 255 255
-60.6928 27.4761 -51.2219  255 255 255
-60.2313 27.0392 -48.9269  255 255 255
58.5449 -2.85855 7.92649  255 255 255
-65.8035 27.262 -45.6627  255 255 255
-58.818 27.1091 -52.3527  255 255 255
-58.4525 26.735 -50.414  255 255 255
-75.2771 28.2997 -44.1735  255 255 255
-62.7911 27.0583 -49.6602  255 255 255
-56.095 26.3548 -52.2298  255 255 255
-40.8428 24.5937 -57.387  255 255 255
-31.548 22.5772 -55.4339  255 255 255
60.9114 -4.97399 14.8511  255 255 255
-59.1034 26.8661 -52.7602  255 255 255
-58.5385 26.7461 -53.2268  255 255 255
-60.9914 26.6746 -51.3962  255 255 255
57.895 -3.54668 7.31577  255 255 255
-62.0437 26.5493 -50.9996  255 255 255
-57.4295 26.3861 -54.3825  255 255 255
-53.8539 25.8125 -54.8997  255 255 255
-2.34048 15.9591 -50.057  255 255 255
-77.5075 26.7309 -38.1916  255 255 255
-78.144 26.7101 -37.9107  255 255 255
-56.738 26.0224 -55.2486  255 255 255
-80.9563 26.4483 -33.9121  255 255 255
-73.7747 26.9671 -43.9411  255 255 255
-59.0293 25.9845 -53.8217  255 255 255
-62.0575 25.9612 -50.9961  255 255 255
-62.0575 25.9612 -50.9961  255 255 255
59.327 -4.99218 9.96052  255 255 255
-62.9317 25.3513 -48.695  255 255 255
-39.9342 22.0285 -54.2154  255 255 255
-20.9362 18.0985 -50.9481  255 255 255
-25.8439 18.5621 -50.2623  255 255 255
44.7379 5.28869 -41.3415  255 255 255
62.2588 -7.03366 15.4068  255 255 255
-57.3717 23.9958 -52.5609  255 255 255
-7.61 1.78237 23.3186  255 255 255
-79.6685 25.1512 -38.2526  255 255 255
-75.4561 25.7431 -46.0719  255 255 255
-63.5968 24.3527 -51.2959  255 255 255
-57.555 23.9067 -56.4166  255 255 255
61.317 -6.90468 10.9774  255 255 255
-65.7959 23.7411 -48.6306  255 255 255
-9.15393 13.3052 -45.6462  255 255 255
-82.054 24.3834 -35.9012  255 255 255
-79.7428 24.4453 -39.0756  255 255 255
-57.546 22.9606 -54.0339  255 255 255
-25.782 15.905 -47.304  255 255 255
-90.8978 26.3463 -41.3902  255 255 255
-81.6028 24.1175 -37.6464  255 255 255
-78.557 23.6351 -39.1118  255 255 255
-64.0423 23.1315 -52.1947  255 255 255
-81.5969 23.6854 -38  255 255 255
-65.1936 22.4768 -50.1141  255 255 255
-35.8152 16.4009 -47.2742  255 255 255
-35.8152 16.4009 -47.2742  255 255 255
-10.8421 0.616188 23.455  255 255 255
-23.5191 13.8859 -45.3886  255 255 255
-66.447 22.2329 -50.6283  255 255 255
-68.1384 22.3077 -49.6478  255 255 255
56.0827 -6.43629 0.718402  255 255 255
-23.6691 13.4495 -44.9414  255 255 255
56.8766 -7.11681 1.85051  255 255 255
41.488 0.77039 -36.3746  255 255 255
8.66181 -4.32448 29.3  255 255 255
57.6423 -8.23954 3.06568  255 255 255
9.77747 -5.03842 29.5205  255 255 255
10.8524 -5.45311 28.8602  255 255 255
59.6727 -9.81518 6.31177  255 255 255
53.5334 -7.38995 -5.82653  255 255 255
-41.367 13.3229 -44.4752  255 255 255
41.1269 -2.17821 -33.0874  255 255 255
13.0412 -6.6511 27.4564  255 255 255
41.802 -3.33663 -31.5853  255 255 255
5.29488 -6.35225 32.4245  255 255 255
65.9099 -13.9004 18.5415  255 255 255
40.531 -3.84457 -30.3282  255 255 255
62.5303 -12.8218 12.48  255 255 255
48.9296 -7.25503 -16.303  255 255 255
-11.7099 -3.27491 27.5503  255 255 255
-15.938 -2.16306 22.3314  255 255 255
-58.7911 13.9055 -43.7764  255 255 255
-60.8724 14.1883 -44.343  255 255 255
-60.8724 14.1883 -44.343  255 255 255
-17.6279 -0.592974 9.6983  255 255 255
-17.9003 -0.876847 10.1092  255 255 255
-66.6852 14.4543 -42.6807  255 255 255
66.8478 -15.7074 19.3409  255 255 255
51.3772 -10.2463 -12.9932  255 255 255
-61.2703 12.2637 -42.0965  255 255 255
-44.5054 8.18917 -38.5699  255 255 255
24.265 -9.61865 12.5172  255 255 255
-50.4512 9.11726 -38.5183  255 255 255
-75.8758 14.2541 -43.8366  255 255 255
51.3929 -11.3807 -13.1501  255 255 255
60.8571 -14.8106 5.08309  255 255 255
-43.2511 7.12288 -38.4967  255 255 255
-42.3411 6.66637 -36.7359  255 255 255
-14.8219 -5.49658 26.9816  255 255 255
-9.72105 -6.87925 31.5398  255 255 255
-24.554 -1.68842 6.91761  255 255 255
63.507 -16.436 8.35207  255 255 255
14.2686 -10.737 28.5728  255 255 255
-74.4518 12.0172 -41.5841  255 255 255
-20.5846 -3.57281 13.3738  255 255 255
-20.5846 -3.57281 13.3738  255 255 255
24.9511 -11.4577 14.1601  255 255 255
2.72756 -9.98845 34.5141  255 255 255
-38.1904 4.02926 -33.9884  255 255 255
-18.1194 -5.32638 22.6928  255 255 255
4.82613 -10.5194 34.3786  255 255 255
4.82613 -10.5194 34.3786  255 255 255
60.9804 -16.6966 4.96257  255 255 255
-40.0689 4.15921 -33.3008  255 255 255
47.5861 -12.3073 -22.2743  255 255 255
61.6338 -17.1104 3.9378  255 255 255
48.3836 -12.7065 -22.0928  255 255 255
48.4261 -12.7229 -22.2011  255 255 255
53.5598 -14.8026 -10.4851  255 255 255
-18.117 -6.33414 23.9134  255 255 255
-38.0711 2.49373 -32.5363  255 255 255
47.4969 -13.3476 -20.8674  255 255 255
62.6717 -18.3652 5.05255  255 255 255
47.4845 -13.6723 -21.3114  255 255 255
9.41068 -12.2652 32.959  255 255 255
26.036 -13.5782 16.4067  255 255 255
59.832 -17.6432 -0.645816  255 255 255
-24.7053 -4.61956 10.2478  255 255 255
10.4162 -12.7697 32.1827  255 255 255
-32.9025 0.139932 -28.9064  255 255 255
-75.034 8.449 -37.1125  255 255 255
-51.444 3.50781 -32.5342  255 255 255
-61.7377 5.33489 -34.2764  255 255 255
63.9946 -20.1595 9.43295  255 255 255
-52.2323 1.42522 -15.7823  255 255 255
24.2745 -14.8289 18.0071  255 255 255
-40.0226 0.225676 -29.2083  255 255 255
19.4027 -14.7023 22.8222  255 255 255
-64.946 4.67618 -33.2901  255 255 255
-5.14022 -11.7891 35.2962  255 255 255
5.43124 -13.6398 34.9722  255 255 255
-2.11334 -12.7144 35.7758  255 255 255
-48.6488 0.233947 -29.2261  255 255 255
-23.5871 -7.92768 17.9602  255 255 255
-10.9646 -11.2375 32.8842  255 255 255
-17.2979 -10.0078 26.9101  255 255 255
24.877 -17.0548 20.7539  255 255 255
-45.1495 -1.6022 -27.5594  255 255 255
-46.4341 -1.55115 -27.1405  255 255 255
-0.817407 -13.9845 35.9746  255 255 255
18.2922 -16.6142 25.1905  255 255 255
-48.3859 -1.40889 -27.1098  255 255 255
11.2851 -16.1556 32.2989  255 255 255
65.3291 -23.8313 4.41012  255 255 255
-49.7899 -1.96465 -26.6436  255 255 255
52.242 -20.8739 -13.1835  255 255 255
-52.5871 -2.40687 -17.2264  255 255 255
-10.019 -13.2026 33.9174  255 255 255
53.193 -21.5787 -12.5667  255 255 255
-27.6147 -9.41612 16.2222  255 255 255
-18.8351 -11.6664 25.9176  255 255 255
-51.1835 -3.26428 -24.6535  255 255 255
-27.5862 -10.0901 16.7825  255 255 255
4.89849 -17.0808 35.1535  255 255 255
-34.9469 -7.47094 -22.077  255 255 255
-41.3061 -6.4064 -20.2564  255 255 255
-38.4517 -6.95667 -21.4786  255 255 255
51.9477 -23.8907 -10.4591  255 255 255
23.6289 -20.7804 24.6384  255 255 255
70.0351 -28.544 17.2772  255 255 255
-49.6031 -6.08566 -21.5567  255 255 255
54.0747 -25.1989 -8.42148  255 255 255
65.1082 -27.8268 6.78836  255 255 255
-58.2128 -4.94874 -23.1061  255 255 255
69.9134 -29.3276 16.6173  255 255 255
70.4429 -29.7141 17.1581  255 255 255
65.129 -28.4471 1.65077  255 255 255
-41.8274 -8.76828 -18.859  255 255 255
54.3793 -26.4929 -8.06024  255 255 255
4.67178 -19.185 34.944  255 255 255
-42.4482 -9.25434 -18.9752  255 255 255
-8.98006 -16.7931 34.131  255 255 255
0.907398 -18.6557 35.9082  255 255 255
15.2646 -21.1837 30.4561  255 255 255
-43.9973 -9.15312 -19.2225  255 255 255
-15.0675 -16.0953 30.9032  255 255 255
-44.1124 -9.89801 -17.6938  255 255 255
-38.4643 -11.0732 -16.9117  255 255 255
-49.8937 -9.12366 -18.1514  255 255 255
70.0996 -31.5695 15.1157  255 255 255
-48.8328 -9.42442 -17.8504  255 255 255
-51.0331 -9.0651 -18.3422  255 255 255
70.7855 -31.8056 16.2031  255 255 255
-51.2488 -9.38103 -18.0068  255 255 255
22.7194 -23.6865 28.2435  255 255 255
48.5967 -27.8979 -5.16218  255 255 255
-39.1508 -12.1982 -15.6302  255 255 255
-21.4822 -16.3046 27.3722  255 255 255
12.9152 -22.7725 32.1606  255 255 255
-49.7249 -11.0793 -16.3318  255 255 255
-22.2662 -16.5155 25.953  255 255 255
69.4092 -33.2118 12.4196  255 255 255
-19.4055 -17.1835 29.0516  255 255 255
15.2016 -23.6046 30.6188  255 255 255
-2.96275 -20.4335 35.0321  255 255 255
-56.9465 -10.7153 -16.3841  255 255 255
-56.8711 -10.7097 -16.0298  255 255 255
-46.1172 -13.0008 -14.5347  255 255 255
-45.8582 -13.2373 -14.6738  255 255 255
-42.0635 -14.033 -13.5138  255 255 255
16.6533 -25.1795 30.5372  255 255 255
-19.8286 -18.4924 29.9041  255 255 255
-26.3502 -17.3704 24.8267  255 255 255
-26.3502 -17.3704 24.8267  255 255 255
-20.4325 -18.447 28.8827  255 255 255
19.6314 -26.0534 31.1222  255 255 255
15.7826 -25.3842 30.8204  255 255 255
-39.4918 -15.6544 -11.1771  255 255 255
57.9971 -34.1533 -0.53795  255 255 255
16.04 -26.4433 32.1082  255 255 255
13.0379 -26.0631 32.0389  255 255 255
17.4584 -26.9832 32.5117  255 255 255
17.4584 -26.9832 32.5117  255 255 255
-44.3266 -16.5735 -9.86297  255 255 255
-26.4095 -19.1701 27.238  255 255 255
43.8672 -33.1264 1.2266  255 255 255
-22.4874 -20.2756 28.2641  255 255 255
-22.4874 -20.2756 28.2641  255 255 255
-16.7749 -21.2619 32.1792  255 255 255
3.49637 -25.0836 35.9245  255 255 255
-15.7422 -21.5608 33.3235  255 255 255
-0.555886 -24.5288 35.7429  255 255 255
-51.2765 -16.4321 -10.2688  255 255 255
-26.5945 -20.2217 26.4135  255 255 255
-51.5772 -16.904 -9.86602  255 255 255
-46.7685 -17.7899 -9.01561  255 255 255
-6.74284 -23.8792 35.6598  255 255 255
15.0982 -28.0904 33.7868  255 255 255
-0.313423 -25.1704 36.4825  255 255 255
-5.31182 -24.2849 35.918  255 255 255
15.3811 -28.5093 34.1002  255 255 255
-26.4026 -20.9756 26.3268  255 255 255
4.11856 -26.398 36.1205  255 255 255
-26.6755 -20.9851 25.7882  255 255 255
16.4334 -28.9796 34.8336  255 255 255
60.6712 -38.5776 6.92756  255 255 255
10.0472 -28.1992 34.5669  255 255 255
-18.4948 -22.9189 31.2802  255 255 255
-13.9134 -23.7167 34.045  255 255 255
-18.0433 -23.2849 31.477  255 255 255
9.35677 -28.3744 34.7767  255 255 255
-55.7385 -18.5471 -7.77524  255 255 255
-50.4132 -19.7684 -7.07533  255 255 255
-18.2558 -23.9342 31.9621  255 255 255
-47.3627 -20.5308 -6.1316  255 255 255
61.8712 -40.9477 9.43967  255 255 255
-60.3113 -18.4894 -7.83678  255 255 255
-45.7882 -21.2417 -5.48129  255 255 255
47.6484 -38.5986 6.63533  255 255 255
-59.6124 -18.8403 -7.48592  255 255 255
8.86454 -29.5045 36.1658  255 255 255
-24.1988 -23.4561 32.0954  255 255 255
-62.6499 -18.9358 -7.05396  255 255 255
-55.1596 -20.4007 -5.47951  255 255 255
7.40936 -29.8508 36.3428  255 255 255
-33.5738 -24.0271 8.99319  255 255 255
-66.3359 -18.8199 -5.20169  255 255 255
-56.1565 -20.9615 -5.64201  255 255 255
53.855 -41.9199 7.95477  255 255 255
-46.1558 -23.9461 -2.02572  255 255 255
5.82873 -31.0751 37.8937  255 255 255
-52.9457 -22.9572 -3.09204  255 255 255
-14.0392 -27.5962 36.0726  255 255 255
-50.4961 -23.6966 -2.38862  255 255 255
-56.7261 -22.7963 -3.08484  255 255 255
-68.4694 -20.9579 -4.53039  255 255 255
33.398 -39.6274 10.8145  255 255 255
-53.6726 -24.2237 -1.21347  255 255 255
-16.0321 -28.4312 35.6646  255 255 255
-10.4376 -29.3863 37.5044  255 255 255
-52.5252 -24.8656 -1.0264  255 255 255
-13.7622 -28.9489 36.9854  255 255 255
-2.73255 -30.9604 38.7691  255 255 255
-2.73255 -30.9604 38.7691  255 255 255
0.0299441 -31.5036 38.6295  255 255 255
-14.9998 -28.7081 37.1458  255 255 255
-26.3185 -28.0894 22.2517  255 255 255
-13.633 -29.2168 36.9112  255 255 255
2.90873 -32.6268 37.388  255 255 255
-66.2792 -22.9751 -2.52849  255 255 255
-54.576 -25.5573 -0.149936  255 255 255
-65.7686 -23.7025 -2.0322  255 255 255
-66.0588 -23.8269 -2.02467  255 255 255
-76.7158 -22.3705 -2.73097  255 255 255
-54.6373 -26.2501 0.834512  255 255 255
-56.403 -26.0826 0.551943  255 255 255
-0.141634 -33.7198 36.6579  255 255 255
-48.6611 -28.2021 3.26105  255 255 255
41.8103 -45.1611 14.9235  255 255 255
-42.7911 -29.7545 4.55596  255 255 255
16.721 -39.3068 25.0225  255 255 255
41.3498 -45.818 15.8445  255 255 255
44.2534 -46.4984 16.3239  255 255 255
12.4535 -39.3435 27.1027  255 255 255
-23.697 -32.6374 24.033  255 255 255
49.5665 -48.5512 18.7264  255 255 255
-1.46813 -36.5624 33.815  255 255 255
-54.8619 -30.4269 5.39833  255 255 255
-14.6727 -34.9807 31.4149  255 255 255
-33.7972 -34.0196 12.6449  255 255 255
-63.6639 -29.3686 4.37981  255 255 255
-63.6639 -29.3686 4.37981  255 255 255
-56.0206 -31.2315 6.12371  255 255 255
41.5093 -49.414 19.9468  255 255 255
0.875746 -40.1331 31.47  255 255 255
-63.7396 -31.1693 6.37673  255 255 255
-43.9214 -34.6266 9.80528  255 255 255
-52.2737 -33.2442 8.85043  255 255 255
-6.34898 -38.7747 32.2022  255 255 255
-0.764748 -40.7708 31.1002  255 255 255
-49.907 -34.422 9.65641  255 255 255
37.4885 -51.0693 22.1845  255 255 255
-71.6889 -31.2485 7.54382  255 255 255
37.3307 -51.263 22.3719  255 255 255
-53.2833 -34.966 10.1473  255 255 255
29.4314 -50.1816 21.6142  255 255 255
-3.44523 -42.7202 30.1573  255 255 255
20.0452 -49.1413 24.961  255 255 255
24.619 -51.1976 22.9647  255 255 255
24.7114 -51.3033 22.7976  255 255 255
21.3343 -50.6883 24.8244  255 255 255
31.9354 -53.4443 25.4101  255 255 255
-20.6014 -41.9452 29.1649  255 255 255
-8.2883 -44.9928 31.2091  255 255 255
-6.34952 -45.6554 31.5077  255 255 255
19.8061 -52.743 26.0067  255 255 255
-17.9738 -43.8048 29.8573  255 255 255
30.2405 -55.5392 28.0223  255 255 255
-20.6691 -44.8739 25.6604  255 255 255
